5.062698125839233398e-01 4.822120666503906250e-01 4.552839398384094238e-01 4.249713420867919922e-01 3.906288444995880127e-01 3.514348864555358887e-01 3.063271343708038330e-01 2.539074718952178955e-01 1.922983378171920776e-01 1.189178824424743652e-01 6.499350070953369141e-02 7.117220759391784668e-02 1.135547235608100891e-01 1.181018054485321045e-01 1.219833046197891235e-01 1.252135187387466431e-01 1.278040707111358643e-01 1.297643482685089111e-01 1.311013698577880859e-01 1.318198591470718384e-01 1.319224238395690918e-01 1.314093917608261108e-01 1.302790045738220215e-01 1.285271346569061279e-01 1.261475533246994019e-01 1.231317743659019470e-01 1.194688081741333008e-01 1.151453405618667603e-01 1.101454198360443115e-01 1.044502556324005127e-01 9.803837537765502930e-02 9.088497608900070190e-02 1.153432205319404602e-01 5.829373002052307129e-01 6.107529997825622559e-01 6.348476409912109375e-01 6.559035778045654297e-01 6.744454503059387207e-01 6.908831596374511719e-01 7.055422663688659668e-01 7.186835408210754395e-01 7.305190563201904297e-01 7.412230372428894043e-01 7.509393095970153809e-01 7.597881555557250977e-01 7.678710222244262695e-01 7.752733826637268066e-01 7.820687294006347656e-01 7.883195281028747559e-01 7.940797805786132812e-01 7.993965148925781250e-01 8.043103218078613281e-01 8.088569045066833496e-01 8.130675554275512695e-01 8.169698119163513184e-01 8.205879330635070801e-01 8.239433765411376953e-01 8.270553350448608398e-01 8.299406170845031738e-01 8.326145410537719727e-01
5.062698125839233398e-01 4.823538362979888916e-01 4.555975794792175293e-01 4.254951477050781250e-01 3.914123177528381348e-01 3.525425195693969727e-01 3.078449070453643799e-01 2.559517025947570801e-01 1.950297206640243530e-01 1.225643008947372437e-01 6.427241116762161255e-02 7.039129734039306641e-02 1.127486974000930786e-01 1.172399893403053284e-01 1.210662648081779480e-01 1.242414191365242004e-01 1.267771124839782715e-01 1.286823153495788574e-01 1.299638748168945312e-01 1.306264549493789673e-01 1.306722611188888550e-01 1.301015913486480713e-01 1.289123594760894775e-01 1.271003186702728271e-01 1.246590092778205872e-01 1.215796023607254028e-01 1.178510636091232300e-01 1.134596914052963257e-01 1.083892285823822021e-01 1.026207879185676575e-01 9.613232314586639404e-02 8.889894187450408936e-02 8.089216798543930054e-02 7.207981497049331665e-02 6.242594495415687561e-02 5.189004540443420410e-02 4.042675346136093140e-02 2.924606762826442719e-02 6.881171464920043945e-01 7.029920816421508789e-01 7.163208723068237305e-01 7.283203005790710449e-01 7.391685247421264648e-01 7.490126490592956543e-01 7.579753398895263672e-01 7.661600708961486816e-01 7.736539840698242188e-01 7.805318236351013184e-01 7.868574857711791992e-01 7.926859855651855469e-01 7.980647087097167969e-01 8.030353188514709473e-01 8.076341152191162109e-01 8.118926882743835449e-01 8.158391118049621582e-01 8.194980621337890625e-01 8.228914141654968262e-01 8.260385394096374512e-01 8.289564251899719238e-01 8.316608667373657227e-01
5.062698125839233398e-01 4.827772080898284912e-01 4.565328657627105713e-01 4.270550310611724854e-01 3.937416970729827881e-01 3.558305203914642334e-01 3.123417496681213379e-01 2.619949579238891602e-01 2.030839920043945312e-01 1.332844793796539307e-01 6.211056932806968689e-02 6.804966926574707031e-02 1.103307902812957764e-01 1.146542653441429138e-01 1.183140426874160767e-01 1.213233992457389832e-01 1.236933842301368713e-01 1.254323571920394897e-01 1.265465766191482544e-01 1.270400285720825195e-01 1.269144266843795776e-01 1.261693835258483887e-01 1.248021870851516724e-01 1.228080093860626221e-01 1.201797202229499817e-01 1.169078350067138672e-01 1.129804626107215881e-01 1.083832234144210815e-01 1.030990555882453918e-01 9.710809588432312012e-02 9.038755297660827637e-02 8.291130512952804565e-02 7.464986294507980347e-02 6.556989997625350952e-02 5.563402920961380005e-02 4.480023309588432312e-02 3.302168101072311401e-02 2.024590224027633667e-02 5.323167517781257629e-02 9.918317943811416626e-02 1.402994990348815918e-01 7.215297222137451172e-01 7.328293919563293457e-01 7.430726289749145508e-01 7.523905038833618164e-01 7.608926296234130859e-01 7.686716914176940918e-01 7.758067250251770020e-01 7.823651432991027832e-01 7.884048819541931152e-01 7.939765453338623047e-01 7.991236448287963867e-01 8.038839697837829590e-01 8.082913160324096680e-01 8.123749494552612305e-01 8.161604404449462891e-01 8.196709752082824707e-01 8.229269385337829590e-01 8.259461522102355957e-01 8.287448287010192871e-01
5.062698125839233398e-01 4.834759533405303955e-01 4.580729007720947266e-01 4.296167194843292236e-01 3.975558876991271973e-01 3.611964285373687744e-01 3.196530342102050781e-01 2.717783451080322266e-01 2.160583287477493286e-01 1.504528522491455078e-01 7.214620709419250488e-02 6.415043026208877563e-02 1.063024178147315979e-01 1.103439033031463623e-01 1.137236282229423523e-01 1.164538860321044922e-01 1.185445785522460938e-01 1.200031116604804993e-01 1.208347529172897339e-01 1.210423856973648071e-01 1.206268817186355591e-01 1.195865646004676819e-01 1.179179027676582336e-01 1.156148836016654968e-01 1.126692220568656921e-01 1.090702787041664124e-01 1.048049405217170715e-01 9.985752403736114502e-02 9.420950710773468018e-02 1.145169883966445923e-01 1.377834230661392212e-01 1.592778861522674561e-01 1.791590601205825806e-01 1.975661218166351318e-01 2.146212756633758545e-01 2.304324209690093994e-01 2.450949400663375854e-01 2.586936950683593750e-01 2.713038027286529541e-01 2.829923331737518311e-01 2.938192486763000488e-01 3.038379251956939697e-01 3.130962550640106201e-01 3.216370344161987305e-01 3.294986784458160400e-01 3.367155194282531738e-01 3.433181047439575195e-01 3.493338525295257568e-01 3.547872900962829590e-01 3.596999645233154297e-01 3.702219426631927490e-01 3.863590657711029053e-01 4.012761414051055908e-01 4.150803983211517334e-01 4.278660714626312256e-01 4.397161304950714111e-01 4.507038891315460205e-01 4.608941376209259033e-01 4.703446328639984131e-01 4.791067242622375488e-01
5.062698125839233398e-01 4.844399392604827881e-01 4.601901173591613770e-01 4.331247508525848389e-01 4.027566015720367432e-01 3.684774935245513916e-01 3.295197784900665283e-01 2.848993539810180664e-01 2.333343774080276489e-01 1.731233745813369751e-01 1.019579693675041199e-01 5.869932472705841064e-02 6.319392472505569458e-02 1.043081656098365784e-01 1.072905808687210083e-01 1.096242442727088928e-01 1.113174557685852051e-01 1.123763695359230042e-01 1.128046214580535889e-01 1.126038506627082825e-01 1.117732897400856018e-01 1.147859022021293640e-01 1.506223082542419434e-01 1.831135153770446777e-01 2.126730829477310181e-01 2.396480590105056763e-01 2.643316686153411865e-01 2.869735062122344971e-01 3.077873289585113525e-01 3.269569575786590576e-01 3.446414172649383545e-01 3.609790503978729248e-01 3.760904967784881592e-01 3.900813758373260498e-01 4.030447602272033691e-01 4.150626063346862793e-01 4.262073934078216553e-01 4.365436136722564697e-01 4.461283683776855469e-01 4.550126194953918457e-01 4.632420539855957031e-01 4.708570837974548340e-01 4.778942763805389404e-01 4.843859970569610596e-01 4.903615415096282959e-01 4.958468377590179443e-01 5.008653998374938965e-01 5.054379105567932129e-01 5.095829367637634277e-01 5.133170485496520996e-01 5.166546702384948730e-01 5.196087360382080078e-01 5.221902728080749512e-01 5.244088768959045410e-01 5.262727737426757812e-01 5.277888178825378418e-01 5.289622545242309570e-01 5.297974944114685059e-01 5.302974581718444824e-01 5.304638743400573730e-01
5.062698125839233398e-01 4.856553673744201660e-01 4.628472030162811279e-01 4.375052750110626221e-01 4.092141687870025635e-01 3.774618804454803467e-01 3.416096270084381104e-01 3.008496165275573730e-01 2.541461884975433350e-01 2.001491636037826538e-01 1.370640844106674194e-01 6.245432794094085693e-02 5.565295740962028503e-02 9.654732048511505127e-02 9.900993853807449341e-02 1.008236259222030640e-01 1.019948422908782959e-01 1.260684728622436523e-01 1.711497008800506592e-01 2.112764865159988403e-01 2.471884489059448242e-01 2.794841527938842773e-01 3.086529672145843506e-01 3.350991010665893555e-01 3.591590225696563721e-01 3.811150789260864258e-01 4.012062251567840576e-01 4.196354746818542480e-01 4.365767836570739746e-01 4.521797895431518555e-01 4.665740132331848145e-01 4.798719286918640137e-01 4.921717941761016846e-01 5.035596489906311035e-01 5.141111016273498535e-01 5.238929390907287598e-01 5.329642295837402344e-01 5.413773059844970703e-01 5.491787791252136230e-01 5.564101338386535645e-01 5.631083846092224121e-01 5.693066716194152832e-01 5.750344395637512207e-01 5.803183317184448242e-01 5.851820707321166992e-01 5.896469354629516602e-01 5.937317609786987305e-01 5.974535346031188965e-01 6.008274555206298828e-01 6.038666963577270508e-01 6.065834164619445801e-01 6.089877486228942871e-01 6.110889315605163574e-01 6.128948926925659180e-01 6.144120693206787109e-01 6.156458854675292969e-01 6.166010499000549316e-01 6.172809004783630371e-01 6.176878809928894043e-01 6.178233623504638672e-01
5.062698125839233398e-01 4.871049821376800537e-01 4.659985899925231934e-01 4.426684677600860596e-01 4.167743623256683350e-01 3.879020214080810547e-01 3.555415570735931396e-01 3.190588057041168213e-01 2.776549458503723145e-01 2.303092926740646362e-01 1.756964772939682007e-01 1.120644509792327881e-01 4.645051434636116028e-02 4.902474582195281982e-02 1.066219732165336609e-01 1.632900536060333252e-01 2.126730829477310181e-01 2.560538947582244873e-01 2.944299280643463135e-01 3.285883963108062744e-01 3.591590225696563721e-01 3.866511285305023193e-01 4.114814698696136475e-01 4.339941740036010742e-01 4.544753432273864746e-01 4.731658697128295898e-01 4.902686476707458496e-01 5.059568285942077637e-01 5.203782916069030762e-01 5.336605906486511230e-01 5.459138751029968262e-01 5.572339296340942383e-01 5.677043199539184570e-01 5.773983597755432129e-01 5.863804221153259277e-01 5.947073698043823242e-01 6.024294495582580566e-01 6.095911264419555664e-01 6.162323355674743652e-01 6.223881244659423828e-01 6.280901432037353516e-01 6.333664059638977051e-01 6.382423043251037598e-01 6.427404284477233887e-01 6.468806862831115723e-01 6.506814360618591309e-01 6.541585922241210938e-01 6.573268771171569824e-01 6.601988673210144043e-01 6.627861857414245605e-01 6.650987863540649414e-01 6.671455502510070801e-01 6.689342260360717773e-01 6.704714894294738770e-01 6.717630028724670410e-01 6.728133559226989746e-01 6.736264228820800781e-01 6.742051839828491211e-01 6.745515465736389160e-01 6.746670007705688477e-01
5.062698125839233398e-01 4.887685477733612061e-01 4.695913195610046387e-01 4.485130310058593750e-01 4.252659976482391357e-01 3.995285034179687500e-01 3.709109723567962646e-01 3.389372527599334717e-01 3.030187785625457764e-01 2.624201178550720215e-01 2.162093520164489746e-01 1.631883531808853149e-01 1.017906591296195984e-01 1.568456888198852539e-01 2.145478427410125732e-01 2.643699645996093750e-01 3.077873289585113525e-01 3.459274768829345703e-01 3.796673715114593506e-01 4.096992909908294678e-01 4.365767538547515869e-01 4.607476592063903809e-01 4.825783371925354004e-01 5.023712515830993652e-01 5.203782916069030762e-01 5.368108153343200684e-01 5.518474578857421875e-01 5.656404495239257812e-01 5.783196687698364258e-01 5.899974107742309570e-01 6.007704138755798340e-01 6.107229590415954590e-01 6.199284791946411133e-01 6.284514665603637695e-01 6.363484263420104980e-01 6.436694264411926270e-01 6.504585146903991699e-01 6.567551493644714355e-01 6.625939011573791504e-01 6.680061221122741699e-01 6.730192303657531738e-01 6.776581406593322754e-01 6.819450855255126953e-01 6.858995556831359863e-01 6.895397901535034180e-01 6.928813457489013672e-01 6.959385275840759277e-01 6.987239718437194824e-01 7.012490630149841309e-01 7.035238146781921387e-01 7.055570483207702637e-01 7.073565125465393066e-01 7.089291810989379883e-01 7.102807760238647461e-01 7.114161849021911621e-01 7.123396396636962891e-01 7.130544781684875488e-01 7.135633230209350586e-01 7.138678431510925293e-01 7.139692902565002441e-01
5.062698125839233398e-01 4.906232059001922607e-01 4.735671281814575195e-01 4.549295306205749512e-01 4.345083832740783691e-01 4.120645225048065186e-01 3.873133361339569092e-01 3.599127829074859619e-01 3.294493257999420166e-01 2.954169213771820068e-01 2.571907043457031250e-01 2.139896005392074585e-01 1.791590601205825806e-01 2.400428652763366699e-01 2.920513153076171875e-01 3.369573354721069336e-01 3.760904967784881592e-01 4.104672074317932129e-01 4.408778846263885498e-01 4.679464697837829590e-01 4.921717941761016846e-01 5.139576792716979980e-01 5.336342453956604004e-01 5.514740943908691406e-01 5.677043199539184570e-01 5.825154185295104980e-01 5.960683822631835938e-01 6.085001826286315918e-01 6.199284791946411133e-01 6.304538249969482422e-01 6.401638984680175781e-01 6.491343379020690918e-01 6.574315428733825684e-01 6.651135087013244629e-01 6.722312569618225098e-01 6.788299083709716797e-01 6.849491596221923828e-01 6.906244158744812012e-01 6.958870887756347656e-01 7.007650732994079590e-01 7.052836418151855469e-01 7.094648480415344238e-01 7.133286595344543457e-01 7.168930768966674805e-01 7.201739549636840820e-01 7.231858968734741211e-01 7.259414196014404297e-01 7.284520864486694336e-01 7.307279109954833984e-01 7.327782511711120605e-01 7.346109151840209961e-01 7.362326383590698242e-01 7.376501560211181641e-01 7.388682961463928223e-01 7.398917675018310547e-01 7.407241463661193848e-01 7.413684725761413574e-01 7.418270707130432129e-01 7.421016097068786621e-01 7.421929240226745605e-01
5.062698125839233398e-01 4.926438331604003906e-01 4.778638780117034912e-01 4.618040621280670166e-01 4.443185925483703613e-01 4.252377748489379883e-01 4.043627679347991943e-01 3.814593255519866943e-01 3.562496006488800049e-01 3.284013867378234863e-01 2.975144088268280029e-01 2.631019651889801025e-01 2.450949400663375854e-01 3.010880947113037109e-01 3.489188253879547119e-01 3.902177214622497559e-01 4.262073636054992676e-01 4.578227400779724121e-01 4.857906401157379150e-01 5.106847882270812988e-01 5.329642295837402344e-01 5.530001521110534668e-01 5.710961818695068359e-01 5.875030159950256348e-01 6.024294495582580566e-01 6.160508394241333008e-01 6.285151243209838867e-01 6.399484276771545410e-01 6.504585146903991699e-01 6.601385474205017090e-01 6.690685749053955078e-01 6.773184537887573242e-01 6.849491596221923828e-01 6.920139193534851074e-01 6.985599994659423828e-01 7.046285867691040039e-01 7.102563381195068359e-01 7.154756188392639160e-01 7.203156352043151855e-01 7.248017787933349609e-01 7.289572954177856445e-01 7.328027486801147461e-01 7.363561391830444336e-01 7.396343350410461426e-01 7.426516413688659668e-01 7.454216480255126953e-01 7.479557394981384277e-01 7.502647638320922852e-01 7.523579001426696777e-01 7.542434334754943848e-01 7.559286952018737793e-01 7.574204206466674805e-01 7.587240338325500488e-01 7.598444223403930664e-01 7.607855796813964844e-01 7.615510821342468262e-01 7.621436119079589844e-01 7.625653743743896484e-01 7.628178000450134277e-01 7.629019618034362793e-01
5.062698125839233398e-01 4.948038160800933838e-01 4.824170470237731934e-01 4.690217077732086182e-01 4.545178115367889404e-01 4.387902915477752686e-01 4.217069447040557861e-01 4.031144678592681885e-01 3.828348815441131592e-01 3.606597483158111572e-01 3.363436460494995117e-01 3.095961213111877441e-01 2.938192486763000488e-01 3.461983501911163330e-01 3.909419775009155273e-01 4.295752942562103271e-01 4.632420539855957031e-01 4.928168058395385742e-01 5.189794898033142090e-01 5.422669649124145508e-01 5.631083846092224121e-01 5.818510651588439941e-01 5.987792015075683594e-01 6.141270399093627930e-01 6.280902028083801270e-01 6.408323049545288086e-01 6.524920463562011719e-01 6.631873846054077148e-01 6.730192303657531738e-01 6.820743680000305176e-01 6.904280185699462891e-01 6.981454491615295410e-01 7.052835822105407715e-01 7.118926048278808594e-01 7.180159687995910645e-01 7.236928939819335938e-01 7.289574146270751953e-01 7.338398694992065430e-01 7.383674383163452148e-01 7.425640821456909180e-01 7.464513778686523438e-01 7.500485181808471680e-01 7.533727288246154785e-01 7.564392685890197754e-01 7.592617869377136230e-01 7.618529796600341797e-01 7.642236351966857910e-01 7.663835883140563965e-01 7.683415412902832031e-01 7.701054215431213379e-01 7.716820240020751953e-01 7.730773687362670898e-01 7.742968797683715820e-01 7.753448486328125000e-01 7.762253284454345703e-01 7.769414782524108887e-01 7.774957418441772461e-01 7.778903245925903320e-01 7.781264185905456543e-01 7.782050967216491699e-01
5.062698125839233398e-01 4.970751702785491943e-01 4.871611297130584717e-01 4.764699041843414307e-01 4.649361073970794678e-01 4.524858295917510986e-01 4.390353560447692871e-01 4.244891107082366943e-01 4.087381958961486816e-01 3.916575014591217041e-01 3.731030821800231934e-01 3.529081344604492188e-01 3.308787345886230469e-01 3.792313635349273682e-01 4.217143356800079346e-01 4.583956897258758545e-01 4.903615415096282959e-01 5.184419751167297363e-01 5.432828664779663086e-01 5.653937458992004395e-01 5.851820707321166992e-01 6.029778122901916504e-01 6.190506219863891602e-01 6.336231231689453125e-01 6.468806862831115723e-01 6.589790582656860352e-01 6.700496673583984375e-01 6.802046895027160645e-01 6.895397901535034180e-01 6.981374621391296387e-01 7.060689926147460938e-01 7.133965492248535156e-01 7.201739549636840820e-01 7.264490127563476562e-01 7.322632074356079102e-01 7.376531958580017090e-01 7.426517009735107422e-01 7.472874522209167480e-01 7.515863180160522461e-01 7.555710077285766602e-01 7.592617869377136230e-01 7.626772522926330566e-01 7.658334374427795410e-01 7.687449455261230469e-01 7.714250683784484863e-01 7.738852500915527344e-01 7.761361598968505859e-01 7.781869173049926758e-01 7.800459265708923340e-01 7.817207574844360352e-01 7.832176089286804199e-01 7.845424413681030273e-01 7.857003211975097656e-01 7.866954803466796875e-01 7.875314950942993164e-01 7.882113456726074219e-01 7.887375950813293457e-01 7.891122698783874512e-01 7.893364429473876953e-01 7.894111871719360352e-01
5.062698125839233398e-01 4.994292259216308594e-01 4.920314550399780273e-01 4.840405285358428955e-01 4.754163920879364014e-01 4.661142230033874512e-01 4.560836553573608398e-01 4.452683627605438232e-01 4.336046278476715088e-01 4.210207164287567139e-01 4.074352383613586426e-01 3.927563130855560303e-01 3.768787086009979248e-01 4.026442468166351318e-01 4.435249269008636475e-01 4.788227677345275879e-01 5.095829367637634277e-01 5.366044044494628906e-01 5.605083703994750977e-01 5.817852616310119629e-01 6.008274555206298828e-01 6.179519295692443848e-01 6.334185004234313965e-01 6.474413871765136719e-01 6.601989269256591797e-01 6.718409657478332520e-01 6.824940443038940430e-01 6.922660470008850098e-01 7.012490630149841309e-01 7.095224261283874512e-01 7.171549201011657715e-01 7.242060303688049316e-01 7.307279706001281738e-01 7.367662787437438965e-01 7.423611283302307129e-01 7.475478649139404297e-01 7.523579001426696777e-01 7.568188309669494629e-01 7.609555125236511230e-01 7.647899389266967773e-01 7.683414816856384277e-01 7.716281414031982422e-01 7.746652364730834961e-01 7.774669528007507324e-01 7.800459265708923340e-01 7.824133634567260742e-01 7.845792770385742188e-01 7.865527868270874023e-01 7.883417606353759766e-01 7.899532914161682129e-01 7.913938760757446289e-01 7.926687598228454590e-01 7.937828302383422852e-01 7.947404384613037109e-01 7.955448627471923828e-01 7.961992025375366211e-01 7.967056035995483398e-01 7.970661520957946777e-01 7.972818613052368164e-01 7.973536252975463867e-01
5.062698125839233398e-01 5.018371939659118652e-01 4.969646632671356201e-01 4.916320145130157471e-01 4.858165979385375977e-01 4.794934988021850586e-01 4.726344645023345947e-01 4.652082324028015137e-01 4.571795165538787842e-01 4.485092461109161377e-01 4.391535818576812744e-01 4.290632605552673340e-01 4.181833267211914062e-01 4.180005788803100586e-01 4.578303396701812744e-01 4.922208189964294434e-01 5.221902728080749512e-01 5.485170483589172363e-01 5.718064904212951660e-01 5.925363898277282715e-01 6.110889315605163574e-01 6.277733445167541504e-01 6.428422927856445312e-01 6.565046906471252441e-01 6.689342260360717773e-01 6.802770495414733887e-01 6.906563043594360352e-01 7.001771330833435059e-01 7.089291810989379883e-01 7.169898152351379395e-01 7.244259715080261230e-01 7.312958836555480957e-01 7.376501560211181641e-01 7.435333132743835449e-01 7.489843368530273438e-01 7.540376782417297363e-01 7.587240338325500488e-01 7.630702853202819824e-01 7.671005725860595703e-01 7.708364129066467285e-01 7.742968797683715820e-01 7.774989008903503418e-01 7.804579734802246094e-01 7.831877470016479492e-01 7.857003211975097656e-01 7.880069017410278320e-01 7.901172637939453125e-01 7.920399308204650879e-01 7.937828302383422852e-01 7.953530550003051758e-01 7.967565655708312988e-01 7.979986071586608887e-01 7.990841865539550781e-01 8.000171184539794922e-01 8.008008003234863281e-01 8.014382719993591309e-01 8.019316792488098145e-01 8.022829890251159668e-01 8.024932146072387695e-01 8.025632500648498535e-01
5.062698125839233398e-01 5.042703747749328613e-01 5.019002556800842285e-01 4.991507232189178467e-01 4.960114359855651855e-01 4.924705624580383301e-01 4.885144829750061035e-01 4.841277003288269043e-01 4.792928099632263184e-01 4.739900231361389160e-01 4.681974053382873535e-01 4.618901014328002930e-01 4.550404548645019531e-01 4.476176202297210693e-01 4.655146002769470215e-01 4.994176328182220459e-01 5.289622545242309570e-01 5.549158453941345215e-01 5.778751969337463379e-01 5.983115434646606445e-01 6.166011095046997070e-01 6.330489516258239746e-01 6.479043364524841309e-01 6.613730192184448242e-01 6.736264824867248535e-01 6.848085522651672363e-01 6.950406432151794434e-01 7.044265270233154297e-01 7.130545377731323242e-01 7.210009694099426270e-01 7.283318638801574707e-01 7.351042628288269043e-01 7.413684725761413574e-01 7.471682429313659668e-01 7.525419592857360840e-01 7.575237154960632324e-01 7.621436715126037598e-01 7.664283514022827148e-01 7.704015374183654785e-01 7.740843892097473145e-01 7.774957418441772461e-01 7.806524038314819336e-01 7.835696339607238770e-01 7.862606048583984375e-01 7.887375950813293457e-01 7.910115122795104980e-01 7.930918931961059570e-01 7.949873805046081543e-01 7.967056035995483398e-01 7.982535362243652344e-01 7.996370196342468262e-01 8.008615970611572266e-01 8.019316792488098145e-01 8.028515577316284180e-01 8.036240935325622559e-01 8.042525053024291992e-01 8.047390580177307129e-01 8.050851821899414062e-01 8.052924275398254395e-01 8.053614497184753418e-01
5.062698125839233398e-01 5.067005753517150879e-01 5.067811012268066406e-01 5.065119862556457520e-01 5.058922171592712402e-01 5.049194693565368652e-01 5.035904049873352051e-01 5.019001960754394531e-01 4.998426735401153564e-01 4.974104464054107666e-01 4.945943951606750488e-01 4.913841485977172852e-01 4.877675175666809082e-01 4.837304353713989258e-01 4.792572557926177979e-01 5.008366107940673828e-01 5.302974581718444824e-01 5.561776161193847656e-01 5.790719389915466309e-01 5.994501113891601562e-01 6.176878809928894043e-01 6.340890526771545410e-01 6.489023566246032715e-01 6.623328924179077148e-01 6.745515465736389160e-01 6.857018470764160156e-01 6.959050893783569336e-01 7.052643895149230957e-01 7.138679027557373047e-01 7.217918634414672852e-01 7.291018962860107422e-01 7.358551621437072754e-01 7.421015501022338867e-01 7.478848695755004883e-01 7.532433867454528809e-01 7.582110166549682617e-01 7.628178000450134277e-01 7.670904397964477539e-01 7.710523605346679688e-01 7.747247219085693359e-01 7.781264185905456543e-01 7.812741994857788086e-01 7.841830849647521973e-01 7.868664860725402832e-01 7.893364429473876953e-01 7.916039228439331055e-01 7.936783432960510254e-01 7.955685853958129883e-01 7.972819209098815918e-01 7.988254427909851074e-01 8.002051115036010742e-01 8.014261126518249512e-01 8.024932146072387695e-01 8.034103512763977051e-01 8.041808009147644043e-01 8.048074245452880859e-01 8.052924275398254395e-01 8.056377172470092773e-01 8.058444261550903320e-01 8.059132695198059082e-01
5.062698125839233398e-01 5.091000199317932129e-01 5.115537047386169434e-01 5.136399865150451660e-01 5.153665542602539062e-01 5.167395472526550293e-01 5.177639126777648926e-01 5.184433460235595703e-01 5.187803506851196289e-01 5.187759995460510254e-01 5.184302926063537598e-01 5.177420377731323242e-01 5.167088508605957031e-01 5.153268575668334961e-01 5.135912299156188965e-01 5.114957094192504883e-01 5.262727737426757812e-01 5.523746013641357422e-01 5.754651427268981934e-01 5.960179567337036133e-01 6.144120097160339355e-01 6.309537887573242188e-01 6.458939909934997559e-01 6.594395637512207031e-01 6.717630028724670410e-01 6.830088496208190918e-01 6.932994127273559570e-01 7.027387619018554688e-01 7.114161849021911621e-01 7.194080352783203125e-01 7.267805933952331543e-01 7.335918545722961426e-01 7.398917675018310547e-01 7.457245588302612305e-01 7.511289715766906738e-01 7.561392784118652344e-01 7.607855796813964844e-01 7.650946974754333496e-01 7.690906524658203125e-01 7.727944850921630859e-01 7.762253284454345703e-01 7.794000506401062012e-01 7.823337912559509277e-01 7.850402593612670898e-01 7.875314950942993164e-01 7.898182272911071777e-01 7.919104099273681641e-01 7.938168644905090332e-01 7.955448627471923828e-01 7.971016168594360352e-01 7.984930276870727539e-01 7.997245788574218750e-01 8.008008003234863281e-01 8.017258048057556152e-01 8.025028705596923828e-01 8.031348586082458496e-01 8.036240935325622559e-01 8.039723038673400879e-01 8.041808009147644043e-01 8.042500615119934082e-01
5.062698125839233398e-01 5.114427804946899414e-01 5.161690711975097656e-01 5.204682946205139160e-01 5.243575572967529297e-01 5.278522372245788574e-01 5.309659838676452637e-01 5.337105393409729004e-01 5.360963344573974609e-01 5.381321907043457031e-01 5.398254394531250000e-01 5.411822795867919922e-01 5.422076582908630371e-01 5.429052710533142090e-01 5.432774424552917480e-01 5.433256626129150391e-01 5.430499315261840820e-01 5.432865023612976074e-01 5.668457150459289551e-01 5.878158807754516602e-01 6.065834760665893555e-01 6.234610080718994141e-01 6.387044787406921387e-01 6.525251865386962891e-01 6.650987863540649414e-01 6.765729784965515137e-01 6.870724558830261230e-01 6.967036128044128418e-01 7.055570483207702637e-01 7.137110829353332520e-01 7.212334871292114258e-01 7.281829118728637695e-01 7.346107959747314453e-01 7.405620813369750977e-01 7.460762262344360352e-01 7.511882185935974121e-01 7.559288144111633301e-01 7.603254914283752441e-01 7.644023895263671875e-01 7.681815624237060547e-01 7.716820240020751953e-01 7.749211788177490234e-01 7.779144644737243652e-01 7.806758880615234375e-01 7.832176089286804199e-01 7.855509519577026367e-01 7.876856327056884766e-01 7.896307110786437988e-01 7.913938760757446289e-01 7.929821610450744629e-01 7.944018244743347168e-01 7.956584692001342773e-01 7.967565655708312988e-01 7.977001667022705078e-01 7.984929680824279785e-01 7.991378903388977051e-01 7.996370196342468262e-01 7.999923825263977051e-01 8.002050518989562988e-01 8.002758026123046875e-01
5.062698125839233398e-01 5.137039422988891602e-01 5.205827355384826660e-01 5.269389748573303223e-01 5.328022837638854980e-01 5.381985306739807129e-01 5.431514978408813477e-01 5.476821660995483398e-01 5.518092513084411621e-01 5.555495619773864746e-01 5.589179992675781250e-01 5.619275569915771484e-01 5.645897388458251953e-01 5.669146776199340820e-01 5.689110159873962402e-01 5.705861449241638184e-01 5.719459652900695801e-01 5.729955434799194336e-01 5.737385749816894531e-01 5.743511319160461426e-01 5.937318205833435059e-01 6.111606359481811523e-01 6.269022226333618164e-01 6.411743164062500000e-01 6.541586518287658691e-01 6.660076379776000977e-01 6.768502593040466309e-01 6.867958307266235352e-01 6.959385871887207031e-01 7.043589949607849121e-01 7.121271491050720215e-01 7.193035483360290527e-01 7.259414196014404297e-01 7.320870161056518555e-01 7.377812862396240234e-01 7.430602312088012695e-01 7.479557394981384277e-01 7.524960637092590332e-01 7.567062973976135254e-01 7.606087327003479004e-01 7.642236351966857910e-01 7.675685882568359375e-01 7.706596851348876953e-01 7.735112905502319336e-01 7.761361598968505859e-01 7.785455584526062012e-01 7.807499766349792480e-01 7.827584743499755859e-01 7.845792770385742188e-01 7.862195372581481934e-01 7.876856327056884766e-01 7.889832258224487305e-01 7.901172637939453125e-01 7.910917997360229492e-01 7.919104695320129395e-01 7.925763726234436035e-01 7.930918931961059570e-01 7.934587001800537109e-01 7.936783432960510254e-01 7.937514781951904297e-01
5.062698125839233398e-01 5.158600807189941406e-01 5.247545838356018066e-01 5.330030322074890137e-01 5.406500697135925293e-01 5.477352738380432129e-01 5.542942285537719727e-01 5.603584647178649902e-01 5.659563541412353516e-01 5.711134076118469238e-01 5.758520960807800293e-01 5.801929831504821777e-01 5.841541886329650879e-01 5.877518057823181152e-01 5.910003781318664551e-01 5.939124822616577148e-01 5.964995622634887695e-01 5.987712740898132324e-01 6.007361412048339844e-01 6.024013757705688477e-01 6.037731170654296875e-01 6.048563718795776367e-01 6.097315549850463867e-01 6.246603727340698242e-01 6.382423043251037598e-01 6.506366729736328125e-01 6.619782447814941406e-01 6.723815798759460449e-01 6.819450259208679199e-01 6.907529830932617188e-01 6.988785862922668457e-01 7.063852548599243164e-01 7.133286595344543457e-01 7.197571992874145508e-01 7.257134914398193359e-01 7.312353849411010742e-01 7.363561987876892090e-01 7.411054372787475586e-01 7.455094456672668457e-01 7.495915293693542480e-01 7.533727288246154785e-01 7.568716406822204590e-01 7.601050138473510742e-01 7.630878686904907227e-01 7.658334374427795410e-01 7.683539390563964844e-01 7.706596851348876953e-01 7.727606892585754395e-01 7.746652960777282715e-01 7.763808965682983398e-01 7.779144644737243652e-01 7.792717814445495605e-01 7.804579734802246094e-01 7.814773917198181152e-01 7.823337912559509277e-01 7.830303311347961426e-01 7.835696339607238770e-01 7.839533090591430664e-01 7.841830849647521973e-01 7.842594981193542480e-01
5.062698125839233398e-01 5.178897380828857422e-01 5.286489725112915039e-01 5.386185050010681152e-01 5.478612184524536133e-01 5.564327836036682129e-01 5.643823146820068359e-01 5.717536807060241699e-01 5.785861015319824219e-01 5.849143266677856445e-01 5.907694697380065918e-01 5.961796045303344727e-01 6.011695265769958496e-01 6.057615280151367188e-01 6.099758744239807129e-01 6.138300299644470215e-01 6.173403859138488770e-01 6.205208301544189453e-01 6.233841180801391602e-01 6.259413957595825195e-01 6.282025575637817383e-01 6.301758885383605957e-01 6.318688988685607910e-01 6.332876682281494141e-01 6.344374418258666992e-01 6.353223919868469238e-01 6.414123773574829102e-01 6.524487137794494629e-01 6.625939607620239258e-01 6.719378829002380371e-01 6.805577874183654785e-01 6.885213255882263184e-01 6.958870887756347656e-01 7.027066946029663086e-01 7.090253829956054688e-01 7.148832082748413086e-01 7.203156352043151855e-01 7.253537774085998535e-01 7.300257086753845215e-01 7.343561649322509766e-01 7.383674383163452148e-01 7.420792579650878906e-01 7.455094456672668457e-01 7.486737370491027832e-01 7.515863180160522461e-01 7.542600631713867188e-01 7.567062973976135254e-01 7.589349746704101562e-01 7.609555125236511230e-01 7.627755999565124512e-01 7.644024491310119629e-01 7.658423185348510742e-01 7.671006321907043457e-01 7.681820392608642578e-01 7.690906524658203125e-01 7.698295116424560547e-01 7.704015374183654785e-01 7.708086371421813965e-01 7.710523605346679688e-01 7.711334824562072754e-01
5.062698125839233398e-01 5.197730660438537598e-01 5.322346091270446777e-01 5.437506437301635742e-01 5.544050335884094238e-01 5.642714500427246094e-01 5.734145045280456543e-01 5.818914175033569336e-01 5.897530317306518555e-01 5.970439910888671875e-01 6.038044691085815430e-01 6.100701093673706055e-01 6.158724427223205566e-01 6.212403774261474609e-01 6.261988878250122070e-01 6.307708621025085449e-01 6.349768638610839844e-01 6.388350129127502441e-01 6.423617005348205566e-01 6.455713510513305664e-01 6.484768390655517578e-01 6.510899066925048828e-01 6.534205079078674316e-01 6.554777026176452637e-01 6.572691202163696289e-01 6.588013768196105957e-01 6.600800752639770508e-01 6.611100435256958008e-01 6.618947386741638184e-01 6.624372601509094238e-01 6.627392768859863281e-01 6.642925739288330078e-01 6.722312569618225098e-01 6.795814037322998047e-01 6.863916516304016113e-01 6.927051544189453125e-01 6.985599994659423828e-01 7.039901018142700195e-01 7.090253829956054688e-01 7.136927843093872070e-01 7.180159687995910645e-01 7.220165133476257324e-01 7.257134914398193359e-01 7.291238903999328613e-01 7.322632074356079102e-01 7.351448535919189453e-01 7.377812862396240234e-01 7.401835322380065918e-01 7.423611283302307129e-01 7.443226575851440430e-01 7.460762262344360352e-01 7.476280927658081055e-01 7.489843368530273438e-01 7.501497864723205566e-01 7.511289715766906738e-01 7.519254684448242188e-01 7.525419592857360840e-01 7.529807686805725098e-01 7.532433867454528809e-01 7.533308863639831543e-01
5.062698125839233398e-01 5.214921832084655762e-01 5.354844927787780762e-01 5.483708381652832031e-01 5.602580904960632324e-01 5.712397098541259766e-01 5.813965797424316406e-01 5.908001661300659180e-01 5.995128750801086426e-01 6.075899004936218262e-01 6.150802373886108398e-01 6.220270395278930664e-01 6.284689903259277344e-01 6.344401836395263672e-01 6.399713158607482910e-01 6.450898051261901855e-01 6.498199701309204102e-01 6.541839838027954102e-01 6.582012772560119629e-01 6.618893146514892578e-01 6.652638912200927734e-01 6.683390736579895020e-01 6.711272597312927246e-01 6.736396551132202148e-01 6.758858561515808105e-01 6.778746843338012695e-01 6.796135306358337402e-01 6.811088323593139648e-01 6.823662519454956055e-01 6.833902001380920410e-01 6.841844320297241211e-01 6.847519278526306152e-01 6.850945353507995605e-01 6.852133870124816895e-01 6.851091384887695312e-01 6.847813725471496582e-01 6.842288374900817871e-01 6.834496259689331055e-01 6.824409961700439453e-01 6.856817603111267090e-01 6.904280185699462891e-01 6.948199868202209473e-01 6.988785862922668457e-01 7.026226520538330078e-01 7.060689926147460938e-01 7.092327475547790527e-01 7.121270298957824707e-01 7.147642374038696289e-01 7.171548604965209961e-01 7.193084955215454102e-01 7.212334871292114258e-01 7.229371666908264160e-01 7.244259715080261230e-01 7.257056236267089844e-01 7.267805933952331543e-01 7.276549935340881348e-01 7.283316850662231445e-01 7.288134694099426270e-01 7.291018962860107422e-01 7.291978597640991211e-01
5.062698125839233398e-01 5.230310559272766113e-01 5.383751988410949707e-01 5.524556040763854980e-01 5.654034614562988281e-01 5.773320198059082031e-01 5.883393883705139160e-01 5.985105633735656738e-01 6.079201698303222656e-01 6.166331768035888672e-01 6.247071623802185059e-01 6.321928501129150391e-01 6.391348838806152344e-01 6.455731987953186035e-01 6.515431404113769531e-01 6.570762395858764648e-01 6.622007489204406738e-01 6.669418215751647949e-01 6.713218092918395996e-01 6.753610372543334961e-01 6.790774464607238770e-01 6.824872493743896484e-01 6.856049299240112305e-01 6.884431838989257812e-01 6.910135746002197266e-01 6.933264732360839844e-01 6.953905820846557617e-01 6.972140073776245117e-01 6.988035440444946289e-01 7.001649737358093262e-01 7.013033628463745117e-01 7.022230029106140137e-01 7.029269933700561523e-01 7.034179568290710449e-01 7.036976814270019531e-01 7.037671208381652832e-01 7.036265134811401367e-01 7.032753229141235352e-01 7.027123570442199707e-01 7.019356489181518555e-01 7.009422183036804199e-01 6.997287273406982422e-01 6.982905268669128418e-01 6.966224312782287598e-01 6.947183012962341309e-01 6.925707459449768066e-01 6.901716589927673340e-01 6.875116825103759766e-01 6.845800280570983887e-01 6.849116086959838867e-01 6.870725154876708984e-01 6.889850497245788574e-01 6.906563043594360352e-01 6.920927166938781738e-01 6.932994127273559570e-01 6.942808628082275391e-01 6.950406432151794434e-01 6.955814361572265625e-01 6.959050893783569336e-01 6.960128545761108398e-01
5.062698125839233398e-01 5.243759155273437500e-01 5.408871173858642578e-01 5.559863448143005371e-01 5.698288083076477051e-01 5.825473070144653320e-01 5.942559242248535156e-01 6.050534844398498535e-01 6.150254011154174805e-01 6.242464184761047363e-01 6.327819824218750000e-01 6.406891345977783203e-01 6.480188369750976562e-01 6.548157930374145508e-01 6.611194014549255371e-01 6.669651865959167480e-01 6.723844408988952637e-01 6.774051785469055176e-01 6.820522546768188477e-01 6.863483786582946777e-01 6.903133988380432129e-01 6.939650774002075195e-01 6.973196864128112793e-01 7.003915309906005859e-01 7.031932473182678223e-01 7.057365775108337402e-01 7.080313563346862793e-01 7.100868225097656250e-01 7.119107842445373535e-01 7.135101556777954102e-01 7.148908376693725586e-01 7.160581350326538086e-01 7.170159816741943359e-01 7.177681922912597656e-01 7.183172106742858887e-01 7.186650037765502930e-01 7.188130021095275879e-01 7.187615036964416504e-01 7.185105681419372559e-01 7.180591225624084473e-01 7.174054980278015137e-01 7.165476083755493164e-01 7.154821753501892090e-01 7.142054438591003418e-01 7.127125263214111328e-01 7.109980583190917969e-01 7.090554833412170410e-01 7.068775892257690430e-01 7.044556736946105957e-01 7.017803788185119629e-01 6.988407373428344727e-01 6.956247091293334961e-01 6.921187639236450195e-01 6.883074641227722168e-01 6.841740012168884277e-01 6.796993613243103027e-01 6.748624444007873535e-01 6.696392297744750977e-01 6.640036702156066895e-01 6.579256653785705566e-01
5.062698125839233398e-01 5.255147814750671387e-01 5.430039763450622559e-01 5.589482784271240234e-01 5.735254287719726562e-01 5.868864059448242188e-01 5.991601347923278809e-01 6.104574203491210938e-01 6.208741068840026855e-01 6.304931044578552246e-01 6.393867135047912598e-01 6.476184129714965820e-01 6.552438139915466309e-01 6.623119711875915527e-01 6.688660383224487305e-01 6.749446988105773926e-01 6.805816888809204102e-01 6.858076453208923340e-01 6.906496882438659668e-01 6.951318979263305664e-01 6.992760300636291504e-01 7.031013369560241699e-01 7.066253423690795898e-01 7.098633646965026855e-01 7.128293514251708984e-01 7.155356407165527344e-01 7.179934382438659668e-01 7.202126383781433105e-01 7.222018241882324219e-01 7.239685654640197754e-01 7.255197167396545410e-01 7.268610000610351562e-01 7.279973626136779785e-01 7.289329171180725098e-01 7.296712398529052734e-01 7.302147150039672852e-01 7.305654883384704590e-01 7.307248711585998535e-01 7.306931614875793457e-01 7.304704785346984863e-01 7.300557494163513184e-01 7.294478416442871094e-01 7.286443710327148438e-01 7.276425957679748535e-01 7.264387011528015137e-01 7.250282764434814453e-01 7.234063148498535156e-01 7.215665578842163086e-01 7.195019125938415527e-01 7.172045707702636719e-01 7.146654129028320312e-01 7.118741273880004883e-01 7.088192701339721680e-01 7.054879665374755859e-01 7.018657922744750977e-01 6.979366540908813477e-01 6.936825513839721680e-01 6.890834569931030273e-01 6.841167211532592773e-01 6.787573695182800293e-01
5.062698125839233398e-01 5.264378190040588379e-01 5.447126626968383789e-01 5.613301396369934082e-01 5.764877796173095703e-01 5.903521776199340820e-01 6.030652523040771484e-01 6.147480010986328125e-01 6.255049705505371094e-01 6.354262232780456543e-01 6.445897817611694336e-01 6.530643105506896973e-01 6.609092950820922852e-01 6.681773662567138672e-01 6.749147772789001465e-01 6.811624765396118164e-01 6.869570612907409668e-01 6.923304796218872070e-01 6.973116993904113770e-01 7.019262313842773438e-01 7.061970233917236328e-01 7.101446986198425293e-01 7.137874960899353027e-01 7.171418666839599609e-01 7.202225327491760254e-01 7.230426669120788574e-01 7.256138920783996582e-01 7.279468774795532227e-01 7.300507426261901855e-01 7.319337129592895508e-01 7.336031198501586914e-01 7.350653409957885742e-01 7.363256812095642090e-01 7.373887300491333008e-01 7.382586002349853516e-01 7.389382123947143555e-01 7.394300699234008789e-01 7.397360205650329590e-01 7.398571372032165527e-01 7.397937178611755371e-01 7.395456433296203613e-01 7.391120791435241699e-01 7.384913563728332520e-01 7.376812100410461426e-01 7.366790175437927246e-01 7.354807853698730469e-01 7.340822815895080566e-01 7.324783205986022949e-01 7.306627631187438965e-01 7.286288142204284668e-01 7.263683676719665527e-01 7.238727211952209473e-01 7.211316227912902832e-01 7.181337475776672363e-01 7.148665189743041992e-01 7.113155722618103027e-01 7.074651122093200684e-01 7.032974362373352051e-01 6.987926363945007324e-01 6.939287185668945312e-01
5.062698125839233398e-01 5.271368622779846191e-01 5.460028648376464844e-01 5.631234645843505859e-01 5.787119269371032715e-01 5.929478406906127930e-01 6.059828996658325195e-01 6.179465651512145996e-01 6.289499402046203613e-01 6.390885710716247559e-01 6.484453082084655762e-01 6.570922732353210449e-01 6.650924682617187500e-01 6.725009083747863770e-01 6.793664693832397461e-01 6.857319474220275879e-01 6.916350722312927246e-01 6.971099972724914551e-01 7.021865248680114746e-01 7.068912982940673828e-01 7.112481594085693359e-01 7.152785658836364746e-01 7.190016508102416992e-01 7.224345207214355469e-01 7.255921959877014160e-01 7.284886837005615234e-01 7.311360836029052734e-01 7.335453033447265625e-01 7.357260584831237793e-01 7.376869916915893555e-01 7.394357919692993164e-01 7.409789562225341797e-01 7.423223257064819336e-01 7.434712052345275879e-01 7.444293498992919922e-01 7.452005147933959961e-01 7.457873225212097168e-01 7.461920380592346191e-01 7.464159131050109863e-01 7.464599013328552246e-01 7.463241219520568848e-01 7.460081577301025391e-01 7.455106973648071289e-01 7.448300123214721680e-01 7.439638972282409668e-01 7.429088950157165527e-01 7.416614294052124023e-01 7.402166128158569336e-01 7.385693192481994629e-01 7.367130517959594727e-01 7.346410155296325684e-01 7.323448061943054199e-01 7.298152446746826172e-01 7.270422577857971191e-01 7.240139842033386230e-01 7.207177281379699707e-01 7.171387672424316406e-01 7.132611870765686035e-01 7.090665698051452637e-01 7.045348286628723145e-01
5.062698125839233398e-01 5.276062488555908203e-01 5.468671321868896484e-01 5.643222332000732422e-01 5.801958441734313965e-01 5.946762561798095703e-01 6.079224944114685059e-01 6.200695037841796875e-01 6.312329769134521484e-01 6.415122151374816895e-01 6.509934663772583008e-01 6.597510576248168945e-01 6.678501963615417480e-01 6.753480434417724609e-01 6.822946071624755859e-01 6.887341737747192383e-01 6.947057843208312988e-01 7.002439498901367188e-01 7.053799033164978027e-01 7.101408243179321289e-01 7.145510315895080566e-01 7.186326980590820312e-01 7.224053740501403809e-01 7.258864045143127441e-01 7.290915846824645996e-01 7.320350408554077148e-01 7.347291707992553711e-01 7.371852993965148926e-01 7.394132614135742188e-01 7.414220571517944336e-01 7.432195544242858887e-01 7.448125481605529785e-01 7.462071776390075684e-01 7.474086284637451172e-01 7.484211921691894531e-01 7.492487430572509766e-01 7.498940825462341309e-01 7.503596544265747070e-01 7.506471276283264160e-01 7.507573962211608887e-01 7.506910562515258789e-01 7.504476308822631836e-01 7.500265240669250488e-01 7.494259476661682129e-01 7.486439943313598633e-01 7.476777434349060059e-01 7.465236186981201172e-01 7.451775074005126953e-01 7.436343431472778320e-01 7.418882846832275391e-01 7.399326562881469727e-01 7.377599477767944336e-01 7.353614568710327148e-01 7.327274680137634277e-01 7.298471927642822266e-01 7.267082333564758301e-01 7.232971191406250000e-01 7.195985913276672363e-01 7.155953049659729004e-01 7.112687826156616211e-01
5.062698125839233398e-01 5.278419852256774902e-01 5.473004579544067383e-01 5.649225115776062012e-01 5.809381008148193359e-01 5.955399274826049805e-01 6.088905930519104004e-01 6.211280822753906250e-01 6.323703527450561523e-01 6.427187919616699219e-01 6.522607803344726562e-01 6.610724329948425293e-01 6.692199110984802246e-01 6.767610907554626465e-01 6.837468743324279785e-01 6.902222633361816406e-01 6.962267756462097168e-01 7.017956376075744629e-01 7.069600224494934082e-01 7.117476463317871094e-01 7.161836028099060059e-01 7.202897667884826660e-01 7.240859270095825195e-01 7.275900840759277344e-01 7.308178544044494629e-01 7.337836027145385742e-01 7.364999651908874512e-01 7.389783263206481934e-01 7.412288188934326172e-01 7.432603836059570312e-01 7.450811266899108887e-01 7.466977238655090332e-01 7.481167912483215332e-01 7.493432164192199707e-01 7.503817081451416016e-01 7.512361407279968262e-01 7.519094347953796387e-01 7.524040341377258301e-01 7.527218461036682129e-01 7.528638839721679688e-01 7.528305649757385254e-01 7.526219487190246582e-01 7.522372007369995117e-01 7.516751289367675781e-01 7.509333491325378418e-01 7.500094771385192871e-01 7.489001750946044922e-01 7.476012706756591797e-01 7.461078763008117676e-01 7.444145083427429199e-01 7.425146102905273438e-01 7.404010295867919922e-01 7.380651235580444336e-01 7.354977130889892578e-01 7.326881885528564453e-01 7.296244502067565918e-01 7.262936830520629883e-01 7.226806282997131348e-01 7.187690138816833496e-01 7.145401835441589355e-01
5.062698125839233398e-01 5.278419852256774902e-01 5.473004579544067383e-01 5.649225115776062012e-01 5.809381008148193359e-01 5.955399274826049805e-01 6.088905930519104004e-01 6.211280822753906250e-01 6.323703527450561523e-01 6.427187919616699219e-01 6.522607803344726562e-01 6.610724329948425293e-01 6.692199110984802246e-01 6.767610907554626465e-01 6.837468743324279785e-01 6.902222633361816406e-01 6.962267756462097168e-01 7.017956376075744629e-01 7.069600224494934082e-01 7.117476463317871094e-01 7.161836028099060059e-01 7.202897667884826660e-01 7.240859270095825195e-01 7.275900840759277344e-01 7.308178544044494629e-01 7.337836027145385742e-01 7.364999651908874512e-01 7.389783263206481934e-01 7.412288188934326172e-01 7.432603836059570312e-01 7.450811266899108887e-01 7.466977238655090332e-01 7.481167912483215332e-01 7.493432164192199707e-01 7.503817081451416016e-01 7.512361407279968262e-01 7.519094347953796387e-01 7.524040341377258301e-01 7.527218461036682129e-01 7.528638839721679688e-01 7.528305649757385254e-01 7.526219487190246582e-01 7.522372007369995117e-01 7.516751289367675781e-01 7.509333491325378418e-01 7.500094771385192871e-01 7.489001750946044922e-01 7.476012706756591797e-01 7.461078763008117676e-01 7.444145083427429199e-01 7.425146102905273438e-01 7.404010295867919922e-01 7.380651235580444336e-01 7.354977130889892578e-01 7.326881885528564453e-01 7.296244502067565918e-01 7.262936830520629883e-01 7.226806282997131348e-01 7.187690138816833496e-01 7.145401835441589355e-01
5.062698125839233398e-01 5.276062488555908203e-01 5.468671321868896484e-01 5.643222332000732422e-01 5.801958441734313965e-01 5.946762561798095703e-01 6.079224944114685059e-01 6.200695037841796875e-01 6.312329769134521484e-01 6.415122151374816895e-01 6.509934663772583008e-01 6.597510576248168945e-01 6.678501963615417480e-01 6.753480434417724609e-01 6.822946071624755859e-01 6.887341737747192383e-01 6.947057843208312988e-01 7.002439498901367188e-01 7.053799033164978027e-01 7.101408243179321289e-01 7.145510315895080566e-01 7.186326980590820312e-01 7.224053740501403809e-01 7.258864045143127441e-01 7.290915846824645996e-01 7.320350408554077148e-01 7.347291707992553711e-01 7.371852993965148926e-01 7.394132614135742188e-01 7.414220571517944336e-01 7.432195544242858887e-01 7.448125481605529785e-01 7.462071776390075684e-01 7.474086284637451172e-01 7.484211921691894531e-01 7.492487430572509766e-01 7.498940825462341309e-01 7.503596544265747070e-01 7.506471276283264160e-01 7.507573962211608887e-01 7.506910562515258789e-01 7.504476308822631836e-01 7.500265240669250488e-01 7.494259476661682129e-01 7.486439943313598633e-01 7.476777434349060059e-01 7.465236186981201172e-01 7.451775074005126953e-01 7.436343431472778320e-01 7.418882846832275391e-01 7.399326562881469727e-01 7.377599477767944336e-01 7.353614568710327148e-01 7.327274680137634277e-01 7.298471927642822266e-01 7.267082333564758301e-01 7.232971191406250000e-01 7.195985913276672363e-01 7.155953049659729004e-01 7.112687826156616211e-01
5.062698125839233398e-01 5.271368622779846191e-01 5.460028648376464844e-01 5.631234645843505859e-01 5.787119269371032715e-01 5.929478406906127930e-01 6.059828996658325195e-01 6.179465651512145996e-01 6.289499402046203613e-01 6.390885710716247559e-01 6.484453082084655762e-01 6.570922732353210449e-01 6.650924682617187500e-01 6.725009083747863770e-01 6.793664693832397461e-01 6.857319474220275879e-01 6.916350722312927246e-01 6.971099972724914551e-01 7.021865248680114746e-01 7.068912982940673828e-01 7.112481594085693359e-01 7.152785658836364746e-01 7.190016508102416992e-01 7.224345207214355469e-01 7.255921959877014160e-01 7.284886837005615234e-01 7.311360836029052734e-01 7.335453033447265625e-01 7.357260584831237793e-01 7.376869916915893555e-01 7.394357919692993164e-01 7.409789562225341797e-01 7.423223257064819336e-01 7.434712052345275879e-01 7.444293498992919922e-01 7.452005147933959961e-01 7.457873225212097168e-01 7.461920380592346191e-01 7.464159131050109863e-01 7.464599013328552246e-01 7.463241219520568848e-01 7.460081577301025391e-01 7.455106973648071289e-01 7.448300123214721680e-01 7.439638376235961914e-01 7.429089546203613281e-01 7.416614294052124023e-01 7.402166128158569336e-01 7.385693192481994629e-01 7.367130517959594727e-01 7.346410155296325684e-01 7.323448061943054199e-01 7.298152446746826172e-01 7.270422577857971191e-01 7.240139842033386230e-01 7.207177281379699707e-01 7.171387672424316406e-01 7.132611870765686035e-01 7.090665698051452637e-01 7.045348286628723145e-01
5.062698125839233398e-01 5.264378190040588379e-01 5.447126626968383789e-01 5.613301396369934082e-01 5.764877796173095703e-01 5.903521776199340820e-01 6.030652523040771484e-01 6.147480010986328125e-01 6.255049705505371094e-01 6.354262232780456543e-01 6.445897817611694336e-01 6.530643105506896973e-01 6.609092950820922852e-01 6.681773662567138672e-01 6.749147772789001465e-01 6.811624765396118164e-01 6.869570612907409668e-01 6.923304796218872070e-01 6.973116993904113770e-01 7.019262313842773438e-01 7.061970233917236328e-01 7.101446986198425293e-01 7.137874960899353027e-01 7.171418666839599609e-01 7.202225327491760254e-01 7.230426669120788574e-01 7.256138920783996582e-01 7.279468774795532227e-01 7.300507426261901855e-01 7.319337129592895508e-01 7.336031198501586914e-01 7.350653409957885742e-01 7.363256812095642090e-01 7.373887300491333008e-01 7.382586002349853516e-01 7.389382123947143555e-01 7.394300699234008789e-01 7.397360205650329590e-01 7.398571372032165527e-01 7.397937774658203125e-01 7.395456433296203613e-01 7.391120791435241699e-01 7.384913563728332520e-01 7.376812100410461426e-01 7.366790175437927246e-01 7.354807853698730469e-01 7.340822815895080566e-01 7.324783205986022949e-01 7.306627631187438965e-01 7.286288142204284668e-01 7.263683676719665527e-01 7.238727211952209473e-01 7.211316227912902832e-01 7.181337475776672363e-01 7.148665189743041992e-01 7.113155722618103027e-01 7.074651122093200684e-01 7.032973766326904297e-01 6.987926363945007324e-01 6.939287185668945312e-01
5.062698125839233398e-01 5.255147814750671387e-01 5.430039763450622559e-01 5.589482784271240234e-01 5.735254287719726562e-01 5.868864059448242188e-01 5.991601347923278809e-01 6.104574203491210938e-01 6.208741068840026855e-01 6.304931044578552246e-01 6.393867135047912598e-01 6.476184129714965820e-01 6.552438139915466309e-01 6.623119711875915527e-01 6.688660383224487305e-01 6.749446988105773926e-01 6.805816888809204102e-01 6.858076453208923340e-01 6.906496882438659668e-01 6.951318979263305664e-01 6.992760300636291504e-01 7.031013369560241699e-01 7.066253423690795898e-01 7.098633646965026855e-01 7.128293514251708984e-01 7.155356407165527344e-01 7.179934382438659668e-01 7.202126383781433105e-01 7.222018241882324219e-01 7.239685654640197754e-01 7.255197167396545410e-01 7.268610000610351562e-01 7.279973626136779785e-01 7.289329171180725098e-01 7.296711802482604980e-01 7.302147746086120605e-01 7.305654883384704590e-01 7.307248711585998535e-01 7.306931614875793457e-01 7.304704785346984863e-01 7.300557494163513184e-01 7.294478416442871094e-01 7.286443710327148438e-01 7.276425957679748535e-01 7.264387011528015137e-01 7.250283360481262207e-01 7.234063148498535156e-01 7.215665578842163086e-01 7.195019125938415527e-01 7.172045707702636719e-01 7.146654129028320312e-01 7.118741273880004883e-01 7.088193297386169434e-01 7.054879665374755859e-01 7.018657922744750977e-01 6.979366540908813477e-01 6.936825513839721680e-01 6.890834569931030273e-01 6.841167211532592773e-01 6.787573695182800293e-01
5.062698125839233398e-01 5.243759155273437500e-01 5.408871173858642578e-01 5.559863448143005371e-01 5.698288083076477051e-01 5.825473070144653320e-01 5.942559242248535156e-01 6.050534844398498535e-01 6.150254011154174805e-01 6.242464184761047363e-01 6.327819824218750000e-01 6.406891345977783203e-01 6.480188369750976562e-01 6.548157930374145508e-01 6.611194014549255371e-01 6.669651865959167480e-01 6.723844408988952637e-01 6.774051785469055176e-01 6.820523738861083984e-01 6.863483786582946777e-01 6.903133988380432129e-01 6.939650774002075195e-01 6.973196864128112793e-01 7.003915309906005859e-01 7.031932473182678223e-01 7.057365775108337402e-01 7.080314159393310547e-01 7.100868225097656250e-01 7.119107842445373535e-01 7.135101556777954102e-01 7.148909568786621094e-01 7.160580754280090332e-01 7.170159816741943359e-01 7.177681922912597656e-01 7.183172106742858887e-01 7.186650037765502930e-01 7.188130021095275879e-01 7.187615036964416504e-01 7.185104489326477051e-01 7.180591225624084473e-01 7.174054980278015137e-01 7.165476083755493164e-01 7.154821753501892090e-01 7.142054438591003418e-01 7.127125263214111328e-01 7.109980583190917969e-01 7.090554833412170410e-01 7.068775892257690430e-01 7.044556736946105957e-01 7.017803788185119629e-01 6.988407373428344727e-01 6.956247091293334961e-01 6.921187639236450195e-01 6.883074641227722168e-01 6.841740012168884277e-01 6.796993613243103027e-01 6.748624444007873535e-01 6.696392297744750977e-01 6.640036702156066895e-01 6.579256653785705566e-01
5.062698125839233398e-01 5.230310559272766113e-01 5.383751988410949707e-01 5.524556040763854980e-01 5.654034614562988281e-01 5.773320198059082031e-01 5.883393883705139160e-01 5.985105633735656738e-01 6.079201698303222656e-01 6.166331768035888672e-01 6.247071623802185059e-01 6.321928501129150391e-01 6.391348838806152344e-01 6.455731987953186035e-01 6.515431404113769531e-01 6.570762395858764648e-01 6.622007489204406738e-01 6.669417619705200195e-01 6.713218092918395996e-01 6.753610372543334961e-01 6.790774464607238770e-01 6.824872493743896484e-01 6.856048107147216797e-01 6.884431838989257812e-01 6.910135746002197266e-01 6.933264732360839844e-01 6.953906416893005371e-01 6.972140073776245117e-01 6.988035440444946289e-01 7.001649737358093262e-01 7.013033628463745117e-01 7.022230029106140137e-01 7.029269933700561523e-01 7.034179568290710449e-01 7.036976814270019531e-01 7.037671208381652832e-01 7.036265134811401367e-01 7.032753229141235352e-01 7.027123570442199707e-01 7.019356489181518555e-01 7.009422183036804199e-01 6.997287273406982422e-01 6.982905268669128418e-01 6.966224312782287598e-01 6.947183012962341309e-01 6.925707459449768066e-01 6.901716589927673340e-01 6.875116825103759766e-01 6.845800280570983887e-01 6.813648939132690430e-01 6.778528690338134766e-01 6.740289330482482910e-01 6.698762178421020508e-01 6.653763651847839355e-01 6.605079174041748047e-01 6.552479267120361328e-01 6.495699286460876465e-01 6.434450149536132812e-01 6.368401646614074707e-01 6.297184824943542480e-01
5.062698125839233398e-01 5.214921832084655762e-01 5.354844927787780762e-01 5.483708381652832031e-01 5.602580904960632324e-01 5.712397098541259766e-01 5.813965797424316406e-01 5.908001661300659180e-01 5.995128750801086426e-01 6.075899004936218262e-01 6.150802373886108398e-01 6.220270395278930664e-01 6.284689903259277344e-01 6.344401836395263672e-01 6.399713158607482910e-01 6.450898051261901855e-01 6.498199701309204102e-01 6.541839838027954102e-01 6.582012772560119629e-01 6.618893146514892578e-01 6.652638912200927734e-01 6.683390736579895020e-01 6.711273193359375000e-01 6.736396551132202148e-01 6.758858561515808105e-01 6.778746843338012695e-01 6.796135306358337402e-01 6.811088323593139648e-01 6.823661923408508301e-01 6.833902001380920410e-01 6.841844320297241211e-01 6.847519278526306152e-01 6.850945353507995605e-01 6.852133870124816895e-01 6.851091384887695312e-01 6.847813725471496582e-01 6.842288374900817871e-01 6.834496259689331055e-01 6.824409961700439453e-01 6.811990737915039062e-01 6.797196269035339355e-01 6.779969930648803711e-01 6.760249137878417969e-01 6.737959980964660645e-01 6.713014245033264160e-01 6.685317158699035645e-01 6.654759049415588379e-01 6.621214151382446289e-01 6.584545373916625977e-01 6.544594764709472656e-01 6.501190662384033203e-01 6.454135775566101074e-01 6.403215527534484863e-01 6.348183155059814453e-01 6.288771033287048340e-01 6.224673390388488770e-01 6.155548691749572754e-01 6.081017851829528809e-01 6.000648140907287598e-01 5.913956761360168457e-01
5.062698125839233398e-01 5.197730660438537598e-01 5.322346091270446777e-01 5.437506437301635742e-01 5.544050335884094238e-01 5.642714500427246094e-01 5.734145045280456543e-01 5.818914175033569336e-01 5.897530317306518555e-01 5.970439910888671875e-01 6.038044691085815430e-01 6.100701093673706055e-01 6.158724427223205566e-01 6.212403774261474609e-01 6.261988878250122070e-01 6.307708621025085449e-01 6.349768638610839844e-01 6.388350129127502441e-01 6.423616409301757812e-01 6.455712318420410156e-01 6.484767794609069824e-01 6.510898470878601074e-01 6.534205079078674316e-01 6.554777026176452637e-01 6.572691202163696289e-01 6.588013768196105957e-01 6.600800752639770508e-01 6.611100435256958008e-01 6.618947386741638184e-01 6.624372601509094238e-01 6.627392768859863281e-01 6.628020405769348145e-01 6.626256108283996582e-01 6.622095704078674316e-01 6.615521907806396484e-01 6.606513261795043945e-01 6.595036387443542480e-01 6.581051349639892578e-01 6.564503908157348633e-01 6.545336842536926270e-01 6.523476243019104004e-01 6.498839259147644043e-01 6.471332907676696777e-01 6.440846323966979980e-01 6.407260894775390625e-01 6.370438337326049805e-01 6.330226063728332520e-01 6.286450624465942383e-01 6.238920092582702637e-01 6.187419891357421875e-01 6.131710410118103027e-01 6.071522235870361328e-01 6.006556153297424316e-01 5.936477184295654297e-01 5.860908031463623047e-01 5.779427886009216309e-01 5.691559314727783203e-01 5.596767067909240723e-01 5.567581057548522949e-01 5.569151043891906738e-01
5.062698125839233398e-01 5.178897380828857422e-01 5.286489725112915039e-01 5.386185050010681152e-01 5.478612184524536133e-01 5.564327836036682129e-01 5.643823146820068359e-01 5.717536807060241699e-01 5.785861015319824219e-01 5.849143266677856445e-01 5.907694697380065918e-01 5.961796045303344727e-01 6.011695265769958496e-01 6.057615280151367188e-01 6.099758744239807129e-01 6.138300299644470215e-01 6.173403263092041016e-01 6.205208897590637207e-01 6.233841180801391602e-01 6.259413957595825195e-01 6.282025575637817383e-01 6.301758885383605957e-01 6.318688988685607910e-01 6.332876682281494141e-01 6.344374418258666992e-01 6.353223919868469238e-01 6.359456181526184082e-01 6.363094449043273926e-01 6.364151239395141602e-01 6.362628340721130371e-01 6.358523964881896973e-01 6.351820826530456543e-01 6.342495083808898926e-01 6.330515742301940918e-01 6.315836906433105469e-01 6.298406124114990234e-01 6.278158426284790039e-01 6.255020499229431152e-01 6.228902935981750488e-01 6.199705600738525391e-01 6.167315244674682617e-01 6.131602525711059570e-01 6.092422008514404297e-01 6.049610972404479980e-01 6.002987027168273926e-01 5.952348113059997559e-01 5.897462368011474609e-01 5.838078260421752930e-01 5.773910284042358398e-01 5.738804936408996582e-01 5.768027901649475098e-01 5.793892741203308105e-01 5.816494226455688477e-01 5.835919976234436035e-01 5.852239727973937988e-01 5.865513086318969727e-01 1.186797022819519043e+00 1.186465859413146973e+00 1.186267733573913574e+00 1.186201691627502441e+00
5.062698125839233398e-01 5.158600807189941406e-01 5.247545838356018066e-01 5.330030322074890137e-01 5.406500697135925293e-01 5.477352738380432129e-01 5.542942285537719727e-01 5.603584647178649902e-01 5.659563541412353516e-01 5.711134076118469238e-01 5.758520960807800293e-01 5.801929831504821777e-01 5.841541886329650879e-01 5.877518057823181152e-01 5.910003781318664551e-01 5.939124822616577148e-01 5.964995622634887695e-01 5.987712740898132324e-01 6.007361412048339844e-01 6.024013757705688477e-01 6.037731170654296875e-01 6.048563718795776367e-01 6.056550145149230957e-01 6.061716675758361816e-01 6.064085960388183594e-01 6.063662767410278320e-01 6.060447096824645996e-01 6.054428815841674805e-01 6.045583486557006836e-01 6.033881306648254395e-01 6.019279360771179199e-01 6.001725196838378906e-01 5.981154441833496094e-01 5.957490205764770508e-01 5.930646061897277832e-01 5.900517702102661133e-01 5.866987705230712891e-01 5.829925537109375000e-01 5.789179801940917969e-01 5.744585990905761719e-01 5.695953369140625000e-01 5.643070936203002930e-01 5.690834522247314453e-01 5.744413137435913086e-01 5.793732404708862305e-01 5.839005112648010254e-01 5.880424976348876953e-01 5.918164253234863281e-01 1.183328270912170410e+00 1.181932449340820312e+00 1.180684685707092285e+00 1.179580330848693848e+00 1.178615212440490723e+00 1.177786111831665039e+00 1.177089214324951172e+00 1.176522493362426758e+00 1.176083922386169434e+00 1.175771594047546387e+00 1.175584912300109863e+00 1.175522446632385254e+00
5.062698125839233398e-01 5.137039422988891602e-01 5.205827355384826660e-01 5.269389748573303223e-01 5.328022837638854980e-01 5.381985306739807129e-01 5.431514978408813477e-01 5.476821660995483398e-01 5.518092513084411621e-01 5.555495619773864746e-01 5.589179992675781250e-01 5.619275569915771484e-01 5.645897388458251953e-01 5.669146776199340820e-01 5.689110159873962402e-01 5.705861449241638184e-01 5.719459652900695801e-01 5.729955434799194336e-01 5.737385749816894531e-01 5.741778016090393066e-01 5.743147134780883789e-01 5.741497278213500977e-01 5.736823678016662598e-01 5.729109048843383789e-01 5.718327164649963379e-01 5.704437494277954102e-01 5.687391757965087891e-01 5.667126178741455078e-01 5.643568038940429688e-01 5.616626143455505371e-01 5.586202740669250488e-01 5.552178621292114258e-01 5.514422655105590820e-01 5.472784042358398438e-01 5.427093505859375000e-01 5.384664535522460938e-01 5.472600460052490234e-01 5.554156303405761719e-01 5.629783272743225098e-01 5.699883103370666504e-01 5.764815211296081543e-01 1.189101934432983398e+00 1.186587095260620117e+00 1.184267044067382812e+00 1.182131648063659668e+00 1.180171251296997070e+00 1.178377747535705566e+00 1.176743626594543457e+00 1.175262331962585449e+00 1.173927903175354004e+00 1.172735095024108887e+00 1.171679377555847168e+00 1.170756936073303223e+00 1.169963955879211426e+00 1.169297933578491211e+00 1.168756008148193359e+00 1.168336749076843262e+00 1.168038249015808105e+00 1.167859554290771484e+00 1.167800068855285645e+00
5.062698125839233398e-01 5.114427804946899414e-01 5.161690711975097656e-01 5.204682946205139160e-01 5.243575572967529297e-01 5.278522372245788574e-01 5.309659838676452637e-01 5.337105393409729004e-01 5.360963344573974609e-01 5.381321907043457031e-01 5.398254394531250000e-01 5.411822795867919922e-01 5.422076582908630371e-01 5.429052710533142090e-01 5.432774424552917480e-01 5.433256626129150391e-01 5.430499315261840820e-01 5.424494743347167969e-01 5.415220260620117188e-01 5.402643084526062012e-01 5.386717319488525391e-01 5.367386341094970703e-01 5.344579219818115234e-01 5.318211913108825684e-01 5.288184881210327148e-01 5.254384279251098633e-01 5.216681361198425293e-01 5.174927711486816406e-01 5.128955245018005371e-01 5.078576803207397461e-01 5.023580789566040039e-01 5.117426514625549316e-01 5.232888460159301758e-01 5.339789986610412598e-01 5.438839197158813477e-01 1.202428698539733887e+00 1.198571801185607910e+00 1.194994807243347168e+00 1.191677808761596680e+00 1.188603401184082031e+00 1.185755252838134766e+00 1.183120012283325195e+00 1.180684685707092285e+00 1.178438067436218262e+00 1.176370143890380859e+00 1.174471974372863770e+00 1.172735095024108887e+00 1.171152591705322266e+00 1.169718265533447266e+00 1.168425917625427246e+00 1.167270779609680176e+00 1.166248559951782227e+00 1.165355205535888672e+00 1.164587378501892090e+00 1.163942456245422363e+00 1.163417696952819824e+00 1.163011550903320312e+00 1.162722587585449219e+00 1.162549495697021484e+00 1.162492036819458008e+00
5.062698125839233398e-01 5.091000199317932129e-01 5.115537047386169434e-01 5.136399865150451660e-01 5.153665542602539062e-01 5.167395472526550293e-01 5.177639126777648926e-01 5.184433460235595703e-01 5.187803506851196289e-01 5.187759995460510254e-01 5.184302926063537598e-01 5.177420377731323242e-01 5.167088508605957031e-01 5.153268575668334961e-01 5.135912299156188965e-01 5.114957094192504883e-01 5.090325474739074707e-01 5.061925053596496582e-01 5.029651522636413574e-01 4.993382096290588379e-01 4.952975809574127197e-01 4.908273220062255859e-01 4.859095811843872070e-01 4.805240929126739502e-01 4.746483266353607178e-01 4.682569205760955811e-01 4.613215029239654541e-01 4.660381674766540527e-01 4.816249907016754150e-01 4.959804713726043701e-01 5.092238187789916992e-01 1.216744899749755859e+00 1.211619377136230469e+00 1.206873893737792969e+00 1.202476859092712402e+00 1.198400616645812988e+00 1.194620490074157715e+00 1.191114783287048340e+00 1.187863707542419434e+00 1.184850335121154785e+00 1.182059049606323242e+00 1.179476141929626465e+00 1.177089214324951172e+00 1.174887418746948242e+00 1.172860503196716309e+00 1.171000003814697266e+00 1.169297933578491211e+00 1.167746901512145996e+00 1.166340947151184082e+00 1.165074467658996582e+00 1.163942456245422363e+00 1.162940502166748047e+00 1.162064909934997559e+00 1.161312103271484375e+00 1.160680174827575684e+00 1.160165905952453613e+00 1.159767746925354004e+00 1.159484505653381348e+00 1.159314990043640137e+00 1.159258484840393066e+00
5.062698125839233398e-01 5.067005753517150879e-01 5.067811012268066406e-01 5.065119862556457520e-01 5.058922171592712402e-01 5.049194693565368652e-01 5.035904049873352051e-01 5.019001960754394531e-01 4.998426735401153564e-01 4.974104464054107666e-01 4.945943951606750488e-01 4.913841485977172852e-01 4.877675175666809082e-01 4.837304353713989258e-01 4.792572855949401855e-01 4.743300378322601318e-01 4.689286351203918457e-01 4.630306363105773926e-01 4.566106796264648438e-01 4.496403634548187256e-01 4.420885741710662842e-01 4.339197576045989990e-01 4.250945448875427246e-01 4.155690670013427734e-01 4.154062271118164062e-01 4.354352355003356934e-01 4.537629485130310059e-01 5.406144857406616211e-01 5.393692255020141602e-01 5.521255731582641602e-01 5.638937354087829590e-01 1.214903593063354492e+00 1.209821581840515137e+00 1.205116271972656250e+00 1.200756669044494629e+00 1.196715116500854492e+00 1.192967057228088379e+00 1.189491033554077148e+00 1.186267733573913574e+00 1.183279871940612793e+00 1.180512309074401855e+00 1.177951335906982422e+00 1.175584912300109863e+00 1.173401474952697754e+00 1.171391963958740234e+00 1.169547319412231445e+00 1.167859554290771484e+00 1.166321873664855957e+00 1.164927721023559570e+00 1.163672089576721191e+00 1.162549495697021484e+00 1.161556124687194824e+00 1.160687923431396484e+00 1.159941911697387695e+00 1.159314990043640137e+00 1.158805251121520996e+00 1.158410429954528809e+00 1.158129692077636719e+00 1.157961606979370117e+00 1.157905459403991699e+00
5.062698125839233398e-01 5.042703747749328613e-01 5.019002556800842285e-01 4.991507232189178467e-01 4.960114359855651855e-01 4.924705624580383301e-01 4.885144829750061035e-01 4.841277003288269043e-01 4.792928099632263184e-01 4.739900231361389160e-01 4.681974053382873535e-01 4.618901014328002930e-01 4.550404548645019531e-01 4.476175904273986816e-01 4.395871460437774658e-01 4.309103488922119141e-01 4.215442240238189697e-01 4.114404916763305664e-01 4.005451798439025879e-01 3.887974023818969727e-01 3.761290311813354492e-01 3.624628782272338867e-01 3.675403892993927002e-01 3.917339742183685303e-01 4.137444198131561279e-01 5.815070867538452148e-01 5.732532739639282227e-01 5.643523335456848145e-01 5.547497272491455078e-01 5.508524179458618164e-01 5.626539587974548340e-01 5.735567212104797363e-01 1.210417866706848145e+00 1.205699563026428223e+00 1.201327443122863770e+00 1.197274327278137207e+00 1.193515539169311523e+00 1.190029621124267578e+00 1.186797022819519043e+00 1.183800935745239258e+00 1.181025505065917969e+00 1.178457140922546387e+00 1.176083803176879883e+00 1.173894405364990234e+00 1.171879172325134277e+00 1.170029401779174805e+00 1.168336749076843262e+00 1.166794657707214355e+00 1.165396571159362793e+00 1.164137363433837891e+00 1.163011550903320312e+00 1.162015438079833984e+00 1.161144733428955078e+00 1.160396456718444824e+00 1.159767746925354004e+00 1.159256577491760254e+00 1.158860921859741211e+00 1.158579111099243164e+00 1.158410429954528809e+00 1.158354282379150391e+00
5.062698125839233398e-01 5.018371939659118652e-01 4.969646632671356201e-01 4.916320145130157471e-01 4.858165979385375977e-01 4.794934988021850586e-01 4.726344645023345947e-01 4.652082324028015137e-01 4.571795165538787842e-01 4.485092461109161377e-01 4.391535818576812744e-01 4.290632605552673340e-01 4.181834161281585693e-01 4.064519107341766357e-01 3.937990367412567139e-01 3.801461458206176758e-01 3.654039502143859863e-01 3.494710624217987061e-01 3.322320580482482910e-01 3.135546445846557617e-01 3.014102280139923096e-01 3.313797414302825928e-01 6.178268194198608398e-01 6.123278737068176270e-01 6.063852310180664062e-01 5.999697446823120117e-01 5.930483341217041016e-01 5.855843424797058105e-01 5.775364637374877930e-01 5.688581466674804688e-01 5.594969987869262695e-01 5.674257874488830566e-01 5.776552557945251465e-01 1.208656668663024902e+00 1.204221844673156738e+00 1.200110435485839844e+00 1.196297764778137207e+00 1.192761659622192383e+00 1.189482688903808594e+00 1.186443448066711426e+00 1.183627963066101074e+00 1.181022882461547852e+00 1.178615212440490723e+00 1.176394462585449219e+00 1.174350380897521973e+00 1.172473669052124023e+00 1.170756936073303223e+00 1.169192552566528320e+00 1.167774438858032227e+00 1.166496992111206055e+00 1.165355205535888672e+00 1.164344668388366699e+00 1.163461565971374512e+00 1.162702560424804688e+00 1.162064909934997559e+00 1.161546349525451660e+00 1.161144733428955078e+00 1.160858988761901855e+00 1.160687923431396484e+00 1.160630941390991211e+00
5.062698125839233398e-01 4.994292259216308594e-01 4.920314550399780273e-01 4.840405285358428955e-01 4.754163920879364014e-01 4.661142230033874512e-01 4.560836553573608398e-01 4.452683627605438232e-01 4.336046278476715088e-01 4.210206270217895508e-01 4.074352383613586426e-01 3.927563130855560303e-01 3.768787086009979248e-01 3.596824705600738525e-01 3.410299122333526611e-01 3.207621872425079346e-01 2.986952066421508789e-01 2.746150195598602295e-01 2.482705116271972656e-01 2.487727850675582886e-01 2.829775214195251465e-01 6.356638669967651367e-01 6.314552426338195801e-01 6.268807053565979004e-01 6.219197511672973633e-01 6.165497303009033203e-01 6.107451319694519043e-01 6.044773459434509277e-01 5.977146625518798828e-01 5.904213190078735352e-01 5.825573205947875977e-01 5.740776062011718750e-01 5.665114521980285645e-01 5.762321949005126953e-01 5.852391123771667480e-01 1.205390572547912598e+00 1.201477169990539551e+00 1.197847723960876465e+00 1.194482207298278809e+00 1.191362857818603516e+00 1.188473105430603027e+00 1.185799121856689453e+00 1.183328270912170410e+00 1.181048750877380371e+00 1.178950667381286621e+00 1.177024602890014648e+00 1.175262331962585449e+00 1.173656821250915527e+00 1.172201275825500488e+00 1.170890212059020996e+00 1.169718265533447266e+00 1.168681144714355469e+00 1.167774438858032227e+00 1.166995406150817871e+00 1.166340947151184082e+00 1.165808677673339844e+00 1.165396571159362793e+00 1.165103316307067871e+00 1.164927721023559570e+00 1.164869308471679688e+00
5.062698125839233398e-01 4.970751702785491943e-01 4.871611297130584717e-01 4.764699041843414307e-01 4.649361073970794678e-01 4.524858295917510986e-01 4.390353560447692871e-01 4.244891107082366943e-01 4.087381958961486816e-01 3.916575014591217041e-01 3.731030523777008057e-01 3.529081344604492188e-01 3.308787047863006592e-01 3.067878782749176025e-01 2.803683578968048096e-01 2.513036727905273438e-01 2.192156463861465454e-01 1.836494356393814087e-01 1.796119809150695801e-01 2.193291038274765015e-01 6.503699421882629395e-01 6.472195386886596680e-01 6.437572240829467773e-01 6.399683952331542969e-01 6.358373165130615234e-01 6.313459873199462891e-01 6.264744400978088379e-01 6.212002635002136230e-01 6.154986619949340820e-01 6.093416810035705566e-01 6.026980876922607422e-01 5.955329537391662598e-01 5.878071784973144531e-01 5.794766545295715332e-01 5.704917311668395996e-01 5.776600837707519531e-01 5.857068896293640137e-01 5.931699275970458984e-01 1.202104926109313965e+00 1.198862910270690918e+00 1.195860147476196289e+00 1.193081498146057129e+00 1.190513610839843750e+00 1.188144803047180176e+00 1.185964345932006836e+00 1.183962941169738770e+00 1.182131648063659668e+00 1.180463194847106934e+00 1.178950548171997070e+00 1.177587985992431641e+00 1.176370143890380859e+00 1.175292253494262695e+00 1.174350380897521973e+00 1.173540830612182617e+00 1.172860503196716309e+00 1.172307372093200684e+00 1.171879172325134277e+00 1.171574473381042480e+00 6.608625650405883789e-01 6.609827280044555664e-01
5.062698125839233398e-01 4.948038160800933838e-01 4.824170470237731934e-01 4.690217077732086182e-01 4.545178115367889404e-01 4.387902915477752686e-01 4.217069447040557861e-01 4.031144678592681885e-01 3.828348815441131592e-01 3.606597483158111572e-01 3.363436460494995117e-01 3.095961213111877441e-01 2.800703942775726318e-01 2.473491430282592773e-01 2.109259366989135742e-01 1.701800525188446045e-01 1.243427023291587830e-01 8.896118402481079102e-02 1.359565258026123047e-01 6.624128818511962891e-01 6.601447463035583496e-01 6.576017141342163086e-01 6.547737717628479004e-01 6.516496539115905762e-01 6.482171416282653809e-01 6.444615721702575684e-01 6.403673291206359863e-01 6.359165906906127930e-01 6.310897469520568848e-01 6.258643269538879395e-01 6.202157139778137207e-01 6.141162514686584473e-01 6.075348854064941406e-01 6.004371047019958496e-01 5.927839279174804688e-01 5.845316052436828613e-01 5.756307244300842285e-01 5.715212225914001465e-01 5.788098573684692383e-01 5.855659246444702148e-01 1.206282615661621094e+00 1.203355908393859863e+00 1.200651407241821289e+00 1.198156595230102539e+00 1.195860147476196289e+00 1.193752050399780273e+00 1.191823244094848633e+00 1.190066099166870117e+00 1.188473224639892578e+00 1.187038064002990723e+00 1.185755252838134766e+00 6.346878409385681152e-01 6.366508007049560547e-01 6.383380293846130371e-01 6.397554874420166016e-01 6.409083008766174316e-01 6.418006420135498047e-01 6.424358487129211426e-01 6.431089043617248535e-01 6.545555591583251953e-01
5.062698125839233398e-01 4.926438331604003906e-01 4.778638780117034912e-01 4.618040621280670166e-01 4.443185925483703613e-01 4.252377748489379883e-01 4.043627679347991943e-01 3.814593255519866943e-01 3.562496006488800049e-01 3.284013867378234863e-01 2.975144088268280029e-01 2.631019651889801025e-01 2.245664447546005249e-01 1.811657845973968506e-01 1.319671869277954102e-01 7.578158378601074219e-02 1.106971688568592072e-02 2.610238641500473022e-02 6.721631884574890137e-01 6.706423163414001465e-01 6.688714027404785156e-01 6.668439507484436035e-01 6.645522713661193848e-01 6.619876623153686523e-01 6.591400504112243652e-01 6.559981703758239746e-01 6.525493264198303223e-01 6.487790346145629883e-01 6.446715593338012695e-01 6.402087211608886719e-01 6.353707909584045410e-01 6.301350593566894531e-01 6.244767904281616211e-01 6.183680891990661621e-01 6.117776632308959961e-01 6.046703457832336426e-01 5.970070958137512207e-01 5.887436270713806152e-01 5.798301100730895996e-01 5.702102184295654297e-01 5.636611580848693848e-01 5.698515176773071289e-01 5.755720138549804688e-01 5.808492898941040039e-01 5.857069492340087891e-01 5.901660323143005371e-01 5.942456722259521484e-01 5.979627370834350586e-01 6.013324260711669922e-01 6.043679118156433105e-01 6.070810556411743164e-01 6.193687319755554199e-01 6.344162821769714355e-01 6.480794548988342285e-01 6.605261564254760742e-01 6.718978881835937500e-01 6.823145747184753418e-01 6.918784976005554199e-01 7.006775140762329102e-01 7.087872624397277832e-01
5.062698125839233398e-01 4.906232059001922607e-01 4.735671281814575195e-01 4.549295306205749512e-01 4.345083832740783691e-01 4.120645225048065186e-01 3.873133361339569092e-01 3.599127829074859619e-01 3.294493257999420166e-01 2.954169213771820068e-01 2.571907043457031250e-01 2.139896005392074585e-01 1.648246794939041138e-01 1.084246858954429626e-01 4.312815517187118530e-02 2.342613413929939270e-02 2.214102447032928467e-02 5.935080349445343018e-02 6.790393590927124023e-01 6.779268980026245117e-01 6.765767335891723633e-01 6.749838590621948242e-01 6.731423735618591309e-01 6.710454225540161133e-01 6.686850786209106445e-01 6.660522222518920898e-01 6.631364226341247559e-01 6.599261760711669922e-01 6.564081907272338867e-01 6.525679230690002441e-01 6.483888030052185059e-01 6.438524723052978516e-01 6.389382481575012207e-01 6.336231231689453125e-01 6.278815865516662598e-01 6.216847896575927734e-01 6.150006055831909180e-01 6.077930331230163574e-01 6.000214815139770508e-01 5.182756781578063965e-01 5.255498290061950684e-01 5.322809219360351562e-01 5.385011434555053711e-01 5.442393422126770020e-01 5.620551705360412598e-01 5.847002863883972168e-01 6.048523187637329102e-01 6.228842735290527344e-01 6.390975713729858398e-01 6.537390947341918945e-01 6.670119762420654297e-01 6.790859103202819824e-01 6.901028156280517578e-01 7.001831531524658203e-01 7.094287276268005371e-01 7.179272770881652832e-01 7.257539033889770508e-01 7.329738140106201172e-01 7.396435141563415527e-01 7.458124160766601562e-01
5.062698125839233398e-01 4.887685477733612061e-01 4.695913195610046387e-01 4.485130310058593750e-01 4.252659976482391357e-01 3.995285034179687500e-01 3.709109723567962646e-01 3.389372527599334717e-01 3.030187785625457764e-01 2.624201774597167969e-01 2.162093520164489746e-01 1.631883680820465088e-01 1.017906591296195984e-01 3.735805302858352661e-02 3.842921927571296692e-02 7.726477831602096558e-02 7.698331028223037720e-02 7.604658603668212891e-02 7.445126026868820190e-02 7.219166308641433716e-02 9.297113865613937378e-02 6.820597052574157715e-01 6.805926561355590820e-01 6.788835525512695312e-01 6.769257783889770508e-01 6.747120022773742676e-01 6.722337007522583008e-01 6.694813966751098633e-01 6.664439439773559570e-01 6.631092429161071777e-01 6.594633460044860840e-01 6.554908752441406250e-01 6.511743664741516113e-01 6.464946269989013672e-01 4.145742058753967285e-01 4.263599514961242676e-01 4.372894763946533203e-01 4.474260807037353516e-01 4.713945388793945312e-01 5.076127052307128906e-01 5.388802886009216309e-01 5.661246776580810547e-01 5.900549292564392090e-01 6.112222671508789062e-01 6.300617456436157227e-01 6.469209790229797363e-01 6.620815396308898926e-01 6.757733821868896484e-01 6.881865262985229492e-01 6.994789838790893555e-01 7.097837328910827637e-01 7.192128300666809082e-01 7.278615832328796387e-01 7.358117103576660156e-01 7.431337833404541016e-01 7.498884797096252441e-01 7.561284899711608887e-01 7.619001269340515137e-01 7.672436237335205078e-01 7.721947431564331055e-01
5.062698125839233398e-01 4.871049821376800537e-01 4.659985899925231934e-01 4.426684677600860596e-01 4.167743623256683350e-01 3.879020214080810547e-01 3.555415570735931396e-01 3.190588057041168213e-01 2.776549458503723145e-01 2.303092926740646362e-01 1.756964772939682007e-01 1.120644509792327881e-01 4.645051434636116028e-02 4.902474582195281982e-02 8.887761831283569336e-02 9.004063159227371216e-02 9.055694192647933960e-02 9.042828530073165894e-02 8.965435624122619629e-02 8.823223412036895752e-02 8.615694195032119751e-02 8.342108875513076782e-02 8.001480251550674438e-02 8.881346881389617920e-02 6.839290857315063477e-01 6.820567250251770020e-01 6.799338459968566895e-01 6.775522828102111816e-01 6.749029755592346191e-01 6.719751954078674316e-01 2.689878642559051514e-01 2.872115075588226318e-01 3.040673434734344482e-01 3.290204107761383057e-01 3.909849524497985840e-01 4.421102404594421387e-01 4.849798381328582764e-01 5.214161872863769531e-01 5.527415871620178223e-01 5.799386501312255859e-01 6.037530303001403809e-01 6.247602701187133789e-01 6.434122323989868164e-01 6.600683331489562988e-01 6.750177741050720215e-01 6.884961724281311035e-01 7.006974220275878906e-01 7.117822766304016113e-01 7.218852043151855469e-01 7.311199307441711426e-01 7.395823001861572266e-01 7.473546266555786133e-01 7.545075416564941406e-01 7.611020207405090332e-01 7.671906948089599609e-01 7.728197574615478516e-01 7.780293822288513184e-01 7.828549742698669434e-01 7.873277664184570312e-01 7.914751172065734863e-01
5.062698125839233398e-01 4.856553673744201660e-01 4.628472030162811279e-01 4.375052750110626221e-01 4.092141687870025635e-01 3.774618804454803467e-01 3.416096270084381104e-01 3.008496165275573730e-01 2.541461884975433350e-01 2.001491636037826538e-01 1.370640844106674194e-01 6.245432794094085693e-02 5.565295740962028503e-02 9.654732048511505127e-02 9.900995343923568726e-02 1.008236184716224670e-01 1.019948348402976990e-01 1.025277078151702881e-01 1.024241596460342407e-01 1.016837581992149353e-01 1.003039553761482239e-01 9.827979654073715210e-02 9.560406953096389771e-02 9.226714074611663818e-02 8.825684338808059692e-02 8.355846256017684937e-02 7.815474271774291992e-02 7.202523946762084961e-02 9.297113865613937378e-02 1.180897131562232971e-01 2.196065634489059448e-01 3.066749572753906250e-01 3.758670389652252197e-01 4.321359395980834961e-01 4.787591397762298584e-01 5.179916620254516602e-01 5.514360070228576660e-01 5.802623033523559570e-01 6.053444147109985352e-01 6.273487210273742676e-01 6.467918157577514648e-01 6.640803217887878418e-01 6.795387268066406250e-01 6.934293508529663086e-01 7.059659957885742188e-01 7.173252701759338379e-01 7.276534438133239746e-01 7.370738387107849121e-01 7.456900477409362793e-01 7.535903453826904297e-01 7.608502507209777832e-01 7.675344944000244141e-01 7.736992835998535156e-01 7.793931961059570312e-01 7.846587300300598145e-01 7.895329594612121582e-01 7.940486669540405273e-01 7.982348799705505371e-01 8.021168708801269531e-01 8.057169318199157715e-01
5.062698125839233398e-01 4.844399392604827881e-01 4.601901173591613770e-01 4.331247508525848389e-01 4.027566015720367432e-01 3.684774935245513916e-01 3.295197784900665283e-01 2.848993539810180664e-01 2.333343774080276489e-01 1.731233745813369751e-01 1.019579693675041199e-01 5.869932472705841064e-02 6.319392472505569458e-02 1.043081656098365784e-01 1.072905659675598145e-01 1.096242293715476990e-01 1.113174408674240112e-01 1.123763620853424072e-01 1.128046289086341858e-01 1.126038581132888794e-01 1.117732897400856018e-01 1.103099286556243896e-01 1.082086712121963501e-01 1.054619178175926208e-01 1.020597890019416809e-01 9.798994660377502441e-02 9.323737770318984985e-02 8.778448402881622314e-02 1.157257333397865295e-01 2.447905242443084717e-01 3.295268416404724121e-01 3.967818617820739746e-01 4.514209032058715820e-01 4.966565668582916260e-01 5.346956849098205566e-01 5.671040415763854980e-01 5.950235128402709961e-01 6.193064451217651367e-01 6.406016349792480469e-01 6.594120860099792480e-01 6.761332154273986816e-01 6.910805106163024902e-01 7.045090198516845703e-01 7.166261672973632812e-01 7.276031374931335449e-01 7.375823855400085449e-01 7.466830611228942871e-01 7.550058364868164062e-01 7.626363039016723633e-01 7.696474194526672363e-01 7.761021256446838379e-01 7.820545434951782227e-01 7.875522375106811523e-01 7.926359772682189941e-01 7.973417639732360840e-01 8.017013072967529297e-01 8.057423830032348633e-01 8.094896674156188965e-01 8.129650950431823730e-01 8.161882162094116211e-01
5.062698125839233398e-01 4.834759533405303955e-01 4.580729007720947266e-01 4.296167194843292236e-01 3.975558876991271973e-01 3.611964285373687744e-01 3.196530342102050781e-01 2.717783451080322266e-01 2.160583287477493286e-01 1.504528522491455078e-01 7.214620709419250488e-02 6.415043026208877563e-02 1.063024178147315979e-01 1.103439033031463623e-01 1.137236282229423523e-01 1.164538785815238953e-01 1.185445860028266907e-01 1.200031116604804993e-01 1.208347603678703308e-01 1.210423931479454041e-01 1.206268668174743652e-01 1.195865496993064880e-01 1.179178953170776367e-01 1.156148761510848999e-01 1.126692146062850952e-01 1.090702787041664124e-01 1.048049330711364746e-01 9.985753893852233887e-02 2.383456677198410034e-01 3.269131183624267578e-01 3.966453075408935547e-01 4.529339373111724854e-01 4.992915391921997070e-01 5.381045341491699219e-01 5.710509419441223145e-01 5.993452668190002441e-01 6.238876581192016602e-01 6.453601121902465820e-01 6.642881035804748535e-01 6.810834407806396484e-01 6.960730552673339844e-01 7.095203399658203125e-01 7.216391563415527344e-01 7.326053380966186523e-01 7.425646185874938965e-01 7.516390085220336914e-01 7.599310278892517090e-01 7.675278186798095703e-01 7.745037078857421875e-01 7.809221744537353516e-01 7.868386507034301758e-01 7.923007011413574219e-01 7.973495721817016602e-01 8.020220994949340820e-01 8.063496351242065430e-01 8.103603720664978027e-01 8.140795230865478516e-01 8.175286054611206055e-01 8.207272291183471680e-01 8.236930370330810547e-01
5.062698125839233398e-01 4.827772080898284912e-01 4.565328657627105713e-01 4.270550310611724854e-01 3.937416970729827881e-01 3.558305203914642334e-01 3.123417496681213379e-01 2.619949579238891602e-01 2.030839920043945312e-01 1.332844793796539307e-01 6.211056932806968689e-02 6.804966926574707031e-02 1.103307902812957764e-01 1.146542653441429138e-01 1.183140426874160767e-01 1.213234141469001770e-01 1.236933767795562744e-01 1.254323571920394897e-01 1.265465766191482544e-01 1.270400285720825195e-01 1.269144266843795776e-01 1.261693984270095825e-01 1.248021945357322693e-01 1.228080093860626221e-01 1.201797053217887878e-01 1.169078350067138672e-01 1.129804626107215881e-01 1.083832234144210815e-01 1.097329929471015930e-01 3.759419918060302734e-01 4.373401403427124023e-01 4.874082803726196289e-01 5.289873480796813965e-01 5.640412569046020508e-01 5.939712524414062500e-01 6.198034882545471191e-01 6.423069238662719727e-01 6.620692014694213867e-01 6.795468926429748535e-01 6.951001882553100586e-01 7.090167999267578125e-01 7.215297222137451172e-01 7.328293919563293457e-01 7.430726289749145508e-01 7.523905038833618164e-01 7.608926296234130859e-01 7.686717510223388672e-01 7.758066654205322266e-01 7.823650836944580078e-01 7.884049415588378906e-01 7.939765453338623047e-01 7.991236448287963867e-01 8.038840293884277344e-01 8.082913756370544434e-01 8.123748898506164551e-01 8.161605596542358398e-01 8.196709752082824707e-01 8.229269385337829590e-01 8.259461522102355957e-01 8.287448287010192871e-01
5.062698125839233398e-01 4.823538362979888916e-01 4.555975794792175293e-01 4.254951477050781250e-01 3.914123177528381348e-01 3.525425195693969727e-01 3.078449070453643799e-01 2.559517025947570801e-01 1.950297206640243530e-01 1.225643008947372437e-01 6.427241116762161255e-02 7.039129734039306641e-02 1.127486974000930786e-01 1.172399893403053284e-01 1.210662648081779480e-01 1.242414191365242004e-01 1.267771273851394653e-01 1.286823153495788574e-01 1.299638897180557251e-01 1.306264549493789673e-01 1.306722611188888550e-01 1.301015913486480713e-01 1.289123445749282837e-01 1.271003186702728271e-01 1.246590018272399902e-01 1.215796172618865967e-01 1.178510636091232300e-01 1.134596914052963257e-01 1.083892285823822021e-01 1.026207804679870605e-01 4.593845903873443604e-01 5.062202811241149902e-01 5.452910661697387695e-01 5.783554315567016602e-01 6.066772341728210449e-01 6.311887502670288086e-01 6.525927186012268066e-01 6.714285016059875488e-01 6.881171464920043945e-01 7.029920816421508789e-01 7.163208723068237305e-01 7.283203601837158203e-01 7.391685843467712402e-01 7.490126490592956543e-01 7.579753994941711426e-01 7.661600708961486816e-01 7.736539840698242188e-01 7.805318236351013184e-01 7.868574857711791992e-01 7.926859855651855469e-01 7.980647087097167969e-01 8.030353188514709473e-01 8.076341152191162109e-01 8.118926882743835449e-01 8.158391118049621582e-01 8.194980621337890625e-01 8.228914141654968262e-01 8.260384798049926758e-01 8.289564251899719238e-01 8.316609263420104980e-01
5.062698125839233398e-01 4.822120666503906250e-01 4.552839398384094238e-01 4.249713420867919922e-01 3.906288444995880127e-01 3.514348864555358887e-01 3.063271343708038330e-01 2.539074718952178955e-01 1.922983378171920776e-01 1.189178824424743652e-01 6.499350070953369141e-02 7.117220759391784668e-02 1.135547235608100891e-01 1.181018054485321045e-01 1.219833046197891235e-01 1.252135187387466431e-01 1.278040707111358643e-01 1.297643482685089111e-01 1.311013698577880859e-01 1.318198591470718384e-01 1.319224238395690918e-01 1.314093917608261108e-01 1.302790045738220215e-01 1.285271346569061279e-01 1.261475533246994019e-01 1.231317743659019470e-01 1.194688081741333008e-01 1.151453405618667603e-01 1.101454198360443115e-01 1.044502556324005127e-01 9.803837537765502930e-02 9.088497608900070190e-02 1.153432205319404602e-01 5.829373002052307129e-01 6.107529997825622559e-01 6.348476409912109375e-01 6.559035778045654297e-01 6.744454503059387207e-01 6.908831596374511719e-01 7.055422663688659668e-01 7.186835408210754395e-01 7.305190563201904297e-01 7.412230372428894043e-01 7.509393095970153809e-01 7.597881555557250977e-01 7.678710222244262695e-01 7.752733826637268066e-01 7.820687294006347656e-01 7.883195281028747559e-01 7.940797805786132812e-01 7.993965148925781250e-01 8.043103218078613281e-01 8.088569045066833496e-01 8.130675554275512695e-01 8.169698119163513184e-01 8.205879330635070801e-01 8.239433765411376953e-01 8.270553350448608398e-01 8.299406170845031738e-01 8.326145410537719727e-01
